# .PCD v0.7 - Point Cloud Data file format
VERSION 0.7
FIELDS x y z rgb
SIZE 4 4 4 4
TYPE F F F F
COUNT 1 1 1 1
WIDTH 1009
HEIGHT 1
VIEWPOINT 0 0 0 1 0 0 0
POINTS 1009
DATA ascii
0.12660557 0.11813697 0.48300001 -1.9150325e+38
0.12745243 0.11813697 0.48300001 -1.9152894e+38
0.12941353 0.11838156 0.48400003 -1.8753083e+38
0.12999301 0.11813697 0.48300001 -1.8619639e+38
0.13195938 0.11838156 0.48400003 -1.8619631e+38
0.13280798 0.11838156 0.48400003 -1.8619639e+38
0.13365661 0.11838156 0.48400003 -1.901945e+38
0.13450521 0.11838156 0.48400003 -1.8752576e+38
0.13535382 0.11838156 0.48400003 -1.8752576e+38
0.13620244 0.11838156 0.48400003 -1.8752576e+38
0.13705105 0.11838156 0.48400003 -1.8752576e+38
0.13789967 0.11838156 0.48400003 -1.8753591e+38
0.13874827 0.11838156 0.48400003 -1.8753591e+38
0.13959689 0.11838156 0.48400003 -1.9680959e+38
0.1404455 0.11838156 0.48400003 -1.9680959e+38
0.14129412 0.11838156 0.48400003 -1.8752576e+38
0.14243641 0.11862615 0.48500001 -1.8618613e+38
0.14328678 0.11862615 0.48500001 -1.8619639e+38
0.14413714 0.11862615 0.48500001 -1.8619639e+38
0.14498751 0.11862615 0.48500001 -1.9817545e+38
0.14583789 0.11862615 0.48500001 -1.9016881e+38
0.1469907 0.11887074 0.48600003 -1.8753083e+38
0.14784282 0.11887074 0.48600003 -1.8753083e+38
0.1490009 0.11911533 0.48700002 -1.8485169e+38
0.14985476 0.11911533 0.48700002 -1.8485169e+38
0.15070865 0.11911533 0.48700002 -1.9281655e+38
0.15156251 0.11911533 0.48700002 -1.9548022e+38
0.15241639 0.11911533 0.48700002 -1.8619639e+38
0.15358499 0.11935992 0.48800004 -1.8619639e+38
0.15444061 0.11935992 0.48800004 -1.8485676e+38
0.15529624 0.11935992 0.48800004 -1.8619639e+38
0.15615186 0.11935992 0.48800004 -1.808432e+38
0.15700749 0.11935992 0.48800004 -1.808432e+38
0.15786313 0.11935992 0.48800004 -1.781846e+38
0.15871875 0.11935992 0.48800004 -1.781846e+38
0.15957437 0.11935992 0.48800004 -1.7819482e+38
0.16043 0.11935992 0.48800004 -1.7819482e+38
0.16128562 0.11935992 0.48800004 -1.7686038e+38
0.16214125 0.11935992 0.48800004 -1.7819482e+38
0.16299687 0.11935992 0.48800004 -1.781846e+38
0.16385251 0.11935992 0.48800004 -1.7685016e+38
0.16504565 0.11960451 0.48900002 -1.8613411e+38
0.16590303 0.11960451 0.48900002 -1.8613411e+38
0.16676041 0.11960451 0.48900002 -1.9146179e+38
0.16761778 0.11960451 0.48900002 -1.8745325e+38
0.1688197 0.1198491 0.49000001 -1.781846e+38
0.16967884 0.1198491 0.49000001 -1.8084827e+38
0.17053796 0.1198491 0.49000001 -1.781846e+38
0.1713971 0.1198491 0.49000001 -1.781846e+38
0.17260778 0.12009369 0.49100003 -1.781846e+38
0.17346866 0.12009369 0.49100003 -1.781846e+38
0.17432955 0.12009369 0.49100003 -1.8614421e+38
0.17554724 0.12033828 0.49200001 -1.8614421e+38
0.17640989 0.12033828 0.49200001 -1.7686038e+38
0.17763282 0.12058287 0.49300003 -1.7686038e+38
0.17813516 0.12033828 0.49200001 -1.7418126e+38
0.1789978 0.12033828 0.49200001 -1.7551572e+38
0.17986044 0.12033828 0.49200001 -1.7550047e+38
0.18072309 0.12033828 0.49200001 -1.7550047e+38
0.1819548 0.12058287 0.49300003 -1.8347044e+38
0.18281919 0.12058287 0.49300003 -1.8347044e+38
0.18405616 0.12082746 0.49400002 -1.8347044e+38
0.18417364 0.12033828 0.49200001 -1.794619e+38
0.18503627 0.12033828 0.49200001 -1.701521e+38
0.18627676 0.12058287 0.49300003 -1.701521e+38
0.18714115 0.12058287 0.49300003 -1.7413442e+38
0.1883869 0.12082746 0.49400002 -1.7014147e+38
0.18925305 0.12082746 0.49400002 -1.7014145e+38
0.19011919 0.12082746 0.49400002 -1.7014147e+38
0.19098534 0.12082746 0.49400002 -1.7014153e+38
0.19185148 0.12082746 0.49400002 -1.7014153e+38
0.19271763 0.12082746 0.49400002 -1.7014133e+38
0.19358377 0.12082746 0.49400002 -1.7014131e+38
0.19484355 0.12107205 0.49500003 -1.7014128e+38
0.19571145 0.12107205 0.49500003 -1.7014128e+38
0.19618222 0.12082746 0.49400002 -1.7014128e+38
0.19704837 0.12082746 0.49400002 -1.7014128e+38
0.19791451 0.12082746 0.49400002 -1.7014122e+38
0.19878066 0.12082746 0.49400002 -1.7014122e+38
0.1996468 0.12082746 0.49400002 -1.7014122e+38
0.20051295 0.12082746 0.49400002 -1.7014122e+38
0.20137911 0.12082746 0.49400002 -1.7014163e+38
0.20224525 0.12082746 0.49400002 -1.7014155e+38
0.2031114 0.12082746 0.49400002 -1.7014118e+38
0.20397754 0.12082746 0.49400002 -1.7014118e+38
0.20484369 0.12082746 0.49400002 -1.7014173e+38
0.20570983 0.12082746 0.49400002 -1.7014173e+38
0.20657597 0.12082746 0.49400002 -2.0886014e+38
0.2070222 0.12058287 0.49300003 -2.4488446e+38
0.20788659 0.12058287 0.49300003 -2.8758771e+38
0.20875099 0.12058287 0.49300003 -3.1828504e+38
0.20961538 0.12058287 0.49300003 nan
0.21047978 0.12058287 0.49300003 nan
0.21134417 0.12058287 0.49300003 nan
0.21220857 0.12058287 0.49300003 nan
0.21264076 0.12033828 0.49200001 nan
0.21350341 0.12033828 0.49200001 nan
0.21436603 0.12033828 0.49200001 nan
0.21479122 0.12009369 0.49100003 nan
0.21565211 0.12009369 0.49100003 nan
0.21651299 0.12009369 0.49100003 nan
0.21693116 0.1198491 0.49000001 nan
0.00041729334 0.11725943 0.47600001 -2.1550705e+38
0.00125188 0.11725943 0.47600001 -2.1550705e+38
0.0020864666 0.11725943 0.47600001 -2.1683642e+38
0.0029210532 0.11725943 0.47600001 -2.1683642e+38
0.018019006 0.11775211 0.47800002 -2.1819652e+38
0.020447373 0.11725943 0.47600001 -2.1817593e+38
0.036609601 0.1182448 0.48000002 -2.1815502e+38
0.048593633 0.11873749 0.48200002 -2.1416754e+38
0.049541309 0.11898383 0.48300001 -2.1416754e+38
0.054220956 0.1199692 0.48700002 -2.0886623e+38
0.05507483 0.1199692 0.48700002 -2.0886623e+38
0.055928703 0.1199692 0.48700002 -2.0886623e+38
0.056782577 0.1199692 0.48700002 -2.062024e+38
0.057636451 0.1199692 0.48700002 -2.062024e+38
0.058490325 0.1199692 0.48700002 -2.0353873e+38
0.059344195 0.1199692 0.48700002 -2.062024e+38
0.060198069 0.1199692 0.48700002 -2.0753686e+38
0.061051942 0.1199692 0.48700002 -2.088713e+38
0.061905816 0.1199692 0.48700002 -2.0619734e+38
0.062630817 0.11972286 0.48600003 -2.0353366e+38
0.06348294 0.11972286 0.48600003 -2.1016929e+38
0.064335063 0.11972286 0.48600003 -2.0883485e+38
0.065187179 0.11972286 0.48600003 -2.1016929e+38
0.066175185 0.1199692 0.48700002 -2.0883485e+38
0.067029059 0.1199692 0.48700002 -2.0883485e+38
0.067882933 0.1199692 0.48700002 -2.1150892e+38
0.068736807 0.1199692 0.48700002 -2.1150892e+38
0.069590673 0.1199692 0.48700002 -2.1150892e+38
0.070444547 0.1199692 0.48700002 -2.0618205e+38
0.07129842 0.1199692 0.48700002 -2.0618205e+38
0.072152294 0.1199692 0.48700002 -2.0353366e+38
0.073006168 0.1199692 0.48700002 -2.0353366e+38
0.073860042 0.1199692 0.48700002 -2.1149868e+38
0.074713916 0.1199692 0.48700002 -2.1416754e+38
0.075567789 0.1199692 0.48700002 -2.1016422e+38
0.076421663 0.1199692 0.48700002 -2.1149868e+38
0.077275537 0.1199692 0.48700002 -2.0882978e+38
0.078129411 0.1199692 0.48700002 -2.0749534e+38
0.078983285 0.1199692 0.48700002 -2.1279146e+38
0.079837158 0.1199692 0.48700002 -2.1279146e+38
0.080691032 0.1199692 0.48700002 -2.1414671e+38
0.081544906 0.1199692 0.48700002 -2.1281227e+38
0.088375889 0.1199692 0.48700002 -2.0749534e+38
0.089046538 0.11972286 0.48600003 -2.0749534e+38
0.089898661 0.11972286 0.48600003 -2.0749534e+38
0.090750776 0.11972286 0.48600003 -2.0482646e+38
0.091602899 0.11972286 0.48600003 -2.0482646e+38
0.092455022 0.11972286 0.48600003 -2.021576e+38
0.09273117 0.11898383 0.48300001 -2.0082313e+38
0.093578026 0.11898383 0.48300001 -1.9948873e+38
0.094424888 0.11898383 0.48300001 -1.9815429e+38
0.095271751 0.11898383 0.48300001 -2.0082825e+38
0.096118607 0.11898383 0.48300001 -2.0082825e+38
0.096965469 0.11898383 0.48300001 -1.8753083e+38
0.097812332 0.11898383 0.48300001 -1.835223e+38
0.098454922 0.11873749 0.48200002 -1.9148716e+38
0.099300034 0.11873749 0.48200002 -1.9148716e+38
0.10014514 0.11873749 0.48200002 -1.8618613e+38
0.10078073 0.11849114 0.48100004 -1.8618613e+38
0.10183536 0.11873749 0.48200002 -1.8485676e+38
0.10268046 0.11873749 0.48200002 -1.8619639e+38
0.10352556 0.11873749 0.48200002 -1.8618613e+38
0.10437068 0.11873749 0.48200002 -1.8351723e+38
0.10521578 0.11873749 0.48200002 -1.821879e+38
0.10606088 0.11873749 0.48200002 -1.848568e+38
0.10712779 0.11898383 0.48300001 -1.8619639e+38
0.1077511 0.11873749 0.48200002 -1.8619639e+38
0.10859621 0.11873749 0.48200002 -1.8753083e+38
0.10944131 0.11873749 0.48200002 -1.8753083e+38
0.11028642 0.11873749 0.48200002 -1.9150329e+38
0.11113153 0.11873749 0.48200002 -1.9283773e+38
0.11197663 0.11873749 0.48200002 -1.94203e+38
0.11282174 0.11873749 0.48200002 -1.9553744e+38
0.11390267 0.11898383 0.48300001 -1.9554255e+38
0.11474953 0.11898383 0.48300001 -1.9554255e+38
0.11559639 0.11898383 0.48300001 -1.94203e+38
0.11644325 0.11898383 0.48300001 -1.9553744e+38
0.11838156 0.11923017 0.48400003 -1.9417732e+38
0.11923017 0.11923017 0.48400003 -1.9285827e+38
0.11983069 0.11898383 0.48300001 -1.9285827e+38
0.12152441 0.11898383 0.48300001 -1.9285827e+38
0.12237127 0.11898383 0.48300001 -1.9285827e+38
0.12406499 0.11898383 0.48300001 -1.9553744e+38
0.12491185 0.11898383 0.48300001 -1.9687188e+38
0.12575871 0.11898383 0.48300001 -1.9419793e+38
0.1277163 0.11923017 0.48400003 -1.9152894e+38
0.12856492 0.11923017 0.48400003 -1.8753083e+38
0.12941353 0.11923017 0.48400003 -1.9018943e+38
0.13026215 0.11923017 0.48400003 -1.9152387e+38
0.13111076 0.11923017 0.48400003 -1.8619631e+38
0.13195938 0.11923017 0.48400003 -1.8753075e+38
0.13280798 0.11923017 0.48400003 -1.8619639e+38
0.13365661 0.11923017 0.48400003 -1.8753083e+38
0.13450521 0.11923017 0.48400003 -1.8752572e+38
0.13507417 0.11898383 0.48300001 -1.9018939e+38
0.13592103 0.11898383 0.48300001 -1.9150329e+38
0.13676789 0.11898383 0.48300001 -1.9016885e+38
0.13874827 0.11923017 0.48400003 -1.8753083e+38
0.13959689 0.11923017 0.48400003 -1.9814918e+38
0.1404455 0.11923017 0.48400003 -1.9681474e+38
0.14129412 0.11923017 0.48400003 -1.9948873e+38
0.14214273 0.11923017 0.48400003 -1.9681466e+38
0.14328678 0.11947652 0.48500001 -1.8085853e+38
0.14413714 0.11947652 0.48500001 -1.8486187e+38
0.14498751 0.11947652 0.48500001 -1.8883441e+38
0.14583789 0.11947652 0.48500001 -1.9016885e+38
0.1469907 0.11972286 0.48600003 -1.8753083e+38
0.14814702 0.1199692 0.48700002 -1.8753083e+38
0.1490009 0.1199692 0.48700002 -1.8752576e+38
0.14985476 0.1199692 0.48700002 -1.8752576e+38
0.15070865 0.1199692 0.48700002 -1.9682492e+38
0.15156251 0.1199692 0.48700002 -1.9682492e+38
0.15241639 0.1199692 0.48700002 -1.901945e+38
0.15327026 0.1199692 0.48700002 -1.901945e+38
0.15444061 0.12021554 0.48800004 -1.8752576e+38
0.15529624 0.12021554 0.48800004 -1.8752576e+38
0.15615186 0.12021554 0.48800004 -1.8485169e+38
0.15700749 0.12021554 0.48800004 -1.8485169e+38
0.15786313 0.12021554 0.48800004 -1.9281655e+38
0.1583935 0.1199692 0.48700002 -1.9148209e+38
0.15957437 0.12021554 0.48800004 -1.8352737e+38
0.16043 0.12021554 0.48800004 -1.8085849e+38
0.16128562 0.12021554 0.48800004 -1.8219293e+38
0.16214125 0.12021554 0.48800004 -1.8352737e+38
0.16299687 0.12021554 0.48800004 -1.8485676e+38
0.16385251 0.12021554 0.48800004 -1.835223e+38
0.16504565 0.12046189 0.48900002 -1.9281148e+38
0.16590303 0.12046189 0.48900002 -1.9680959e+38
0.16676041 0.12046189 0.48900002 -1.928013e+38
0.16761778 0.12046189 0.48900002 -1.9146686e+38
0.16847517 0.12046189 0.48900002 -1.8084827e+38
0.16967884 0.12070823 0.49000001 -1.781846e+38
0.17053796 0.12070823 0.49000001 -1.781846e+38
0.1713971 0.12070823 0.49000001 -1.8084827e+38
0.17260778 0.12095457 0.49100003 -1.8085853e+38
0.17346866 0.12095457 0.49100003 -1.7818967e+38
0.17432955 0.12095457 0.49100003 -1.8614421e+38
0.17519043 0.12095457 0.49100003 -1.8748384e+38
0.17605132 0.12095457 0.49100003 -1.8881828e+38
0.17727251 0.12120092 0.49200001 -1.8614421e+38
0.17813516 0.12120092 0.49200001 -1.8613918e+38
0.1789978 0.12120092 0.49200001 -1.8747362e+38
0.17986044 0.12120092 0.49200001 -1.7818468e+38
0.18072309 0.12120092 0.49200001 -1.7818468e+38
0.18158571 0.12120092 0.49200001 -1.7818468e+38
0.18244836 0.12120092 0.49200001 -1.7684505e+38
0.183311 0.12120092 0.49200001 -1.8613411e+38
0.1837993 0.12095457 0.49100003 -1.8347044e+38
0.18466018 0.12095457 0.49100003 -1.781275e+38
0.18589891 0.12120092 0.49200001 -1.7678787e+38
0.18676156 0.12120092 0.49200001 -1.7413442e+38
0.18800555 0.12144727 0.49300003 -1.7014145e+38
0.18886994 0.12144727 0.49300003 -1.7014145e+38
0.18973434 0.12144727 0.49300003 -1.7014145e+38
0.19059873 0.12144727 0.49300003 -1.7014143e+38
0.19185148 0.1216936 0.49400002 -1.7014143e+38
0.19271763 0.1216936 0.49400002 -1.7014143e+38
0.19358377 0.1216936 0.49400002 -1.7014137e+38
0.19444993 0.1216936 0.49400002 -1.7014133e+38
0.19531608 0.1216936 0.49400002 -1.7014133e+38
0.19618222 0.1216936 0.49400002 -1.7014133e+38
0.19704837 0.1216936 0.49400002 -1.7014128e+38
0.19791451 0.1216936 0.49400002 -1.7014128e+38
0.19878066 0.1216936 0.49400002 -1.7014128e+38
0.1996468 0.1216936 0.49400002 -1.7014128e+38
0.20051295 0.1216936 0.49400002 -1.7014126e+38
0.20097145 0.12144727 0.49300003 -1.7014145e+38
0.20183584 0.12144727 0.49300003 -1.7014139e+38
0.20270024 0.12144727 0.49300003 -1.7014118e+38
0.20397754 0.1216936 0.49400002 -1.7014118e+38
0.20484369 0.1216936 0.49400002 -1.7014128e+38
0.20529342 0.12144727 0.49300003 -1.7014128e+38
0.2061578 0.12144727 0.49300003 -1.7014118e+38
0.2070222 0.12144727 0.49300003 -1.7014118e+38
0.20746492 0.12120092 0.49200001 -1.8610776e+38
0.20832756 0.12120092 0.49200001 -2.0079182e+38
0.2091902 0.12120092 0.49200001 -2.7416001e+38
0.21005283 0.12120092 0.49200001 -3.195258e+38
0.21091548 0.12120092 0.49200001 -3.3292261e+38
0.21177812 0.12120092 0.49200001 nan
0.21264076 0.12120092 0.49200001 nan
0.21350341 0.12120092 0.49200001 nan
0.21436603 0.12120092 0.49200001 nan
0.21522868 0.12120092 0.49200001 nan
0.21565211 0.12095457 0.49100003 nan
0.21651299 0.12095457 0.49100003 nan
0.21737388 0.12095457 0.49100003 nan
0.21823476 0.12095457 0.49100003 nan
0.017981309 0.11834211 0.47700003 -2.1953082e+38
0.01881765 0.11834211 0.47700003 -2.1951548e+38
0.019612787 0.11809401 0.47600001 -2.1818104e+38
0.020447373 0.11809401 0.47600001 -2.1817593e+38
0.021281959 0.11809401 0.47600001 -2.1684149e+38
0.034084801 0.1190864 0.48000002 -2.1815502e+38
0.034853637 0.1188383 0.47900003 -2.1948946e+38
0.035693482 0.1188383 0.47900003 -2.1815502e+38
0.036609601 0.1190864 0.48000002 -2.1815502e+38
0.0374512 0.1190864 0.48000002 -2.1417772e+38
0.047748525 0.11958259 0.48200002 -2.1551216e+38
0.048593633 0.11958259 0.48200002 -2.1551216e+38
0.049438741 0.11958259 0.48200002 -2.1550198e+38
0.050388169 0.11983069 0.48300001 -2.1550198e+38
0.053038333 0.12007879 0.48400003 -2.0753686e+38
0.05581386 0.12057498 0.48600003 -2.1149868e+38
0.056665979 0.12057498 0.48600003 -2.0750552e+38
0.057518099 0.12057498 0.48600003 -2.0483664e+38
0.058370221 0.12057498 0.48600003 -2.0086999e+38
0.059344195 0.12082308 0.48700002 -2.0220962e+38
0.060198069 0.12082308 0.48700002 -2.0353873e+38
0.061051942 0.12082308 0.48700002 -2.062024e+38
0.061778698 0.12057498 0.48600003 -2.0619734e+38
0.062501952 0.12032688 0.48500001 -2.0353366e+38
0.063352317 0.12032688 0.48500001 -2.0749534e+38
0.067029059 0.12082308 0.48700002 -2.0882978e+38
0.069590673 0.12082308 0.48700002 -2.1149868e+38
0.070444547 0.12082308 0.48700002 -2.0884586e+38
0.07129842 0.12082308 0.48700002 -2.0617698e+38
0.072152294 0.12082308 0.48700002 -2.1016422e+38
0.073006168 0.12082308 0.48700002 -2.0882978e+38
0.073860042 0.12082308 0.48700002 -2.0882978e+38
0.074713916 0.12082308 0.48700002 -2.0749534e+38
0.075567789 0.12082308 0.48700002 -2.0881453e+38
0.076421663 0.12082308 0.48700002 -2.0881453e+38
0.077275537 0.12082308 0.48700002 -2.0882978e+38
0.078129411 0.12082308 0.48700002 -2.061609e+38
0.078983285 0.12082308 0.48700002 -2.061609e+38
0.079837158 0.12082308 0.48700002 -2.061609e+38
0.080691032 0.12082308 0.48700002 -2.0882978e+38
0.081544906 0.12082308 0.48700002 -2.1016422e+38
0.088375889 0.12082308 0.48700002 -1.9687188e+38
0.089229763 0.12082308 0.48700002 -2.0482646e+38
0.090083636 0.12082308 0.48700002 -2.0482646e+38
0.09093751 0.12082308 0.48700002 -2.0215253e+38
0.091791384 0.12082308 0.48700002 -2.0215253e+38
0.092455022 0.12057498 0.48600003 -2.0216269e+38
0.093307137 0.12057498 0.48600003 -2.0082825e+38
0.09415926 0.12057498 0.48600003 -1.9815936e+38
0.09481588 0.12032688 0.48500001 -1.9682492e+38
0.095666252 0.12032688 0.48500001 -2.0613463e+38
0.096516617 0.12032688 0.48500001 -2.0480019e+38
0.097366981 0.12032688 0.48500001 -1.9281148e+38
0.098217346 0.12032688 0.48500001 -1.9281148e+38
0.098659188 0.11983069 0.48300001 -1.8485676e+38
0.09950605 0.11983069 0.48300001 -1.835223e+38
0.10035291 0.11983069 0.48300001 -1.8619639e+38
0.10119977 0.11983069 0.48300001 -1.8619639e+38
0.10204663 0.11983069 0.48300001 -1.9281655e+38
0.10374035 0.11983069 0.48300001 -1.8619639e+38
0.10458721 0.11983069 0.48300001 -1.835223e+38
0.10543407 0.11983069 0.48300001 -1.835223e+38
0.10628093 0.11983069 0.48300001 -1.8753083e+38
0.10712779 0.11983069 0.48300001 -1.9281655e+38
0.10797465 0.11983069 0.48300001 -1.9548022e+38
0.10882151 0.11983069 0.48300001 -1.8618613e+38
0.10966837 0.11983069 0.48300001 -1.8618613e+38
0.11051523 0.11983069 0.48300001 -1.9683594e+38
0.11136209 0.11983069 0.48300001 -1.9149818e+38
0.11220895 0.11983069 0.48300001 -1.94203e+38
0.11305581 0.11983069 0.48300001 -1.9553744e+38
0.11390267 0.11983069 0.48300001 -1.9554255e+38
0.11583572 0.12007879 0.48400003 -1.9553744e+38
0.11668433 0.12007879 0.48400003 -1.9553744e+38
0.11753295 0.12007879 0.48400003 -1.9683594e+38
0.11813697 0.11983069 0.48300001 -1.9416708e+38
0.11983069 0.11983069 0.48300001 -2.0081806e+38
0.12067755 0.11983069 0.48300001 -2.0081806e+38
0.12152441 0.11983069 0.48300001 -2.0081806e+38
0.12237127 0.11983069 0.48300001 -1.9283773e+38
0.12432186 0.12007879 0.48400003 -1.9285827e+38
0.12517047 0.12007879 0.48400003 -1.9285827e+38
0.12601908 0.12007879 0.48400003 -1.9285827e+38
0.1268677 0.12007879 0.48400003 -1.9285827e+38
0.1277163 0.12007879 0.48400003 -1.9814918e+38
0.12856492 0.12007879 0.48400003 -1.9681474e+38
0.12941353 0.12007879 0.48400003 -1.9814918e+38
0.13026215 0.12007879 0.48400003 -1.9814918e+38
0.13111076 0.12007879 0.48400003 -1.8618613e+38
0.13195938 0.12007879 0.48400003 -1.8752576e+38
0.13280798 0.12007879 0.48400003 -1.8752576e+38
0.13365661 0.12007879 0.48400003 -1.8752576e+38
0.13450521 0.12007879 0.48400003 -1.9680959e+38
0.13535382 0.12007879 0.48400003 -1.9814403e+38
0.13620244 0.12007879 0.48400003 -1.9679941e+38
0.13705105 0.12007879 0.48400003 -1.9546497e+38
0.13789967 0.12007879 0.48400003 -1.8752572e+38
0.13874827 0.12007879 0.48400003 -1.9018939e+38
0.13959689 0.12007879 0.48400003 -1.9283773e+38
0.1404455 0.12007879 0.48400003 -1.9150329e+38
0.14129412 0.12007879 0.48400003 -2.021576e+38
0.14214273 0.12007879 0.48400003 -1.9815425e+38
0.14299135 0.12007879 0.48400003 -1.8487207e+38
0.14413714 0.12032688 0.48500001 -1.8353763e+38
0.14498751 0.12032688 0.48500001 -1.8618613e+38
0.14583789 0.12032688 0.48500001 -1.9018943e+38
0.1469907 0.12057498 0.48600003 -1.901945e+38
0.14784282 0.12057498 0.48600003 -1.8753083e+38
0.14869493 0.12057498 0.48600003 -2.0346115e+38
0.14985476 0.12082308 0.48700002 -2.0212671e+38
0.15070865 0.12082308 0.48700002 -1.9282667e+38
0.15156251 0.12082308 0.48700002 -1.9682999e+38
0.15241639 0.12082308 0.48700002 -1.901945e+38
0.15327026 0.12082308 0.48700002 -1.8753083e+38
0.15412414 0.12082308 0.48700002 -1.8618613e+38
0.15497801 0.12082308 0.48700002 -1.8618613e+38
0.15583189 0.12082308 0.48700002 -1.9281148e+38
0.15668575 0.12082308 0.48700002 -1.9547515e+38
0.15753964 0.12082308 0.48700002 -1.9281655e+38
0.1583935 0.12082308 0.48700002 -1.9281655e+38
0.15924737 0.12082308 0.48700002 -1.9282162e+38
0.16043 0.12107117 0.48800004 -1.9282162e+38
0.16128562 0.12107117 0.48800004 -1.9148716e+38
0.16214125 0.12107117 0.48800004 -1.9148716e+38
0.16299687 0.12107117 0.48800004 -1.8619631e+38
0.16385251 0.12107117 0.48800004 -1.8753075e+38
0.16470814 0.12107117 0.48800004 -1.9681466e+38
0.16590303 0.12131927 0.48900002 -1.9681466e+38
0.16676041 0.12131927 0.48900002 -1.8351723e+38
0.16761778 0.12131927 0.48900002 -1.8618613e+38
0.16847517 0.12131927 0.48900002 -1.835223e+38
0.16933255 0.12131927 0.48900002 -1.8085342e+38
0.17018993 0.12131927 0.48900002 -1.8084827e+38
0.1713971 0.12156737 0.49000001 -1.821879e+38
0.17225623 0.12156737 0.49000001 -1.8084827e+38
0.17311537 0.12156737 0.49000001 -1.848568e+38
0.17432955 0.12181547 0.49100003 -1.8219293e+38
0.17519043 0.12181547 0.49100003 -1.8219293e+38
0.17605132 0.12181547 0.49100003 -1.8881828e+38
0.1769122 0.12181547 0.49100003 -1.9015272e+38
0.17777309 0.12181547 0.49100003 -1.8747362e+38
0.17863399 0.12181547 0.49100003 -1.8747362e+38
0.17949487 0.12181547 0.49100003 -1.7684509e+38
0.18035576 0.12181547 0.49100003 -1.7817953e+38
0.18121664 0.12181547 0.49100003 -1.7818468e+38
0.18207753 0.12181547 0.49100003 -1.7818468e+38
0.18293841 0.12181547 0.49100003 -1.8613411e+38
0.1837993 0.12181547 0.49100003 -1.8347044e+38
0.18466018 0.12181547 0.49100003 -1.781275e+38
0.18552108 0.12181547 0.49100003 -1.781275e+38
0.18638197 0.12181547 0.49100003 -1.7280015e+38
0.1876242 0.12206356 0.49200001 -1.7280015e+38
0.18848684 0.12206356 0.49200001 -1.7014147e+38
0.18973434 0.12231166 0.49300003 -1.7014147e+38
0.19059873 0.12231166 0.49300003 -1.7014666e+38
0.19146313 0.12231166 0.49300003 -1.7015708e+38
0.19271763 0.12255976 0.49400002 -1.7014161e+38
0.19358377 0.12255976 0.49400002 -1.7014161e+38
0.19444993 0.12255976 0.49400002 -1.7014155e+38
0.19531608 0.12255976 0.49400002 -1.7014155e+38
0.19618222 0.12255976 0.49400002 -1.7014155e+38
0.19704837 0.12255976 0.49400002 -1.7014155e+38
0.19791451 0.12255976 0.49400002 -1.7014141e+38
0.19878066 0.12255976 0.49400002 -1.7014141e+38
0.19924267 0.12231166 0.49300003 -1.7014151e+38
0.20051295 0.12255976 0.49400002 -1.7014151e+38
0.20097145 0.12231166 0.49300003 -1.7014133e+38
0.20183584 0.12231166 0.49300003 -1.7014133e+38
0.20270024 0.12231166 0.49300003 -1.701412e+38
0.20397754 0.12255976 0.49400002 -1.7014124e+38
0.20442902 0.12231166 0.49300003 -1.7014143e+38
0.20529342 0.12231166 0.49300003 -1.7014143e+38
0.2061578 0.12231166 0.49300003 -1.7014133e+38
0.2070222 0.12231166 0.49300003 -1.7014118e+38
0.20746492 0.12206356 0.49200001 -1.7014118e+38
0.20832756 0.12206356 0.49200001 -1.7014118e+38
0.2091902 0.12206356 0.49200001 -1.7014118e+38
0.21005283 0.12206356 0.49200001 -1.7014118e+38
0.21091548 0.12206356 0.49200001 -1.7014118e+38
0.21177812 0.12206356 0.49200001 -1.7014118e+38
0.21264076 0.12206356 0.49200001 -1.7014118e+38
0.21350341 0.12206356 0.49200001 -1.7688089e+38
0.21436603 0.12206356 0.49200001 -1.7032472e+38
0.21522868 0.12206356 0.49200001 -2.3844895e+38
0.21609132 0.12206356 0.49200001 -3.1430293e+38
0.21651299 0.12181547 0.49100003 nan
0.21781659 0.12206356 0.49200001 nan
0.21867923 0.12206356 0.49200001 nan
0.21998811 0.12231166 0.49300003 nan
0.22130047 0.12255976 0.49400002 nan
0.22216661 0.12255976 0.49400002 nan
0.22303277 0.12255976 0.49400002 nan
0.22435215 0.12280785 0.49500003 nan
0.22522005 0.12280785 0.49500003 nan
0.017981309 0.11917845 0.47700003 -2.2350305e+38
0.01881765 0.11917845 0.47700003 -2.1818104e+38
0.019653989 0.11917845 0.47700003 -2.1818104e+38
0.020447373 0.1189286 0.47600001 -2.115403e+38
0.021281959 0.1189286 0.47600001 -2.1020067e+38
0.022951134 0.1189286 0.47600001 -2.1550705e+38
0.02378572 0.1189286 0.47600001 -2.1550705e+38
0.033104688 0.1194283 0.47800002 -2.1551216e+38
0.034013789 0.11967815 0.47900003 -2.1948946e+38
0.034780875 0.1194283 0.47800002 -2.1948946e+38
0.035693482 0.11967815 0.47900003 -2.1551216e+38
0.03653333 0.11967815 0.47900003 -2.1551216e+38
0.037295152 0.1194283 0.47800002 -2.1286397e+38
0.038133245 0.1194283 0.47800002 -2.1286397e+38
0.038971338 0.1194283 0.47800002 -2.1550705e+38
0.039892718 0.11967815 0.47900003 -2.1016929e+38
0.0467088 0.119928 0.48000002 -2.1417772e+38
0.047649462 0.12017785 0.48100004 -2.1150892e+38
0.048492815 0.12017785 0.48100004 -2.1417261e+38
0.049438741 0.1204277 0.48200002 -2.1550198e+38
0.050283846 0.1204277 0.48200002 -2.1550198e+38
0.051235031 0.12067755 0.48300001 -2.1550705e+38
0.069447778 0.1214271 0.48600003 -2.1016929e+38
0.070299901 0.1214271 0.48600003 -2.0619223e+38
0.071152017 0.1214271 0.48600003 -2.0619223e+38
0.072152294 0.12167695 0.48700002 -2.0619734e+38
0.073006168 0.12167695 0.48700002 -2.0085958e+38
0.073860042 0.12167695 0.48700002 -2.0482646e+38
0.074713916 0.12167695 0.48700002 -2.0882978e+38
0.075567789 0.12167695 0.48700002 -2.0749027e+38
0.076421663 0.12167695 0.48700002 -2.0749027e+38
0.077275537 0.12167695 0.48700002 -2.0882978e+38
0.078129411 0.12167695 0.48700002 -2.0749534e+38
0.078983285 0.12167695 0.48700002 -2.0749534e+38
0.079837158 0.12167695 0.48700002 -2.061609e+38
0.080691032 0.12167695 0.48700002 -2.0882978e+38
0.081377462 0.1214271 0.48600003 -2.0749534e+38
0.082229577 0.1214271 0.48600003 -2.0749534e+38
0.086668141 0.12167695 0.48700002 -2.0882978e+38
0.088375889 0.12167695 0.48700002 -1.9953555e+38
0.089229763 0.12167695 0.48700002 -2.061609e+38
0.089898661 0.1214271 0.48600003 -2.061609e+38
0.090750776 0.1214271 0.48600003 -2.0879335e+38
0.091602899 0.1214271 0.48600003 -2.1012779e+38
0.092455022 0.1214271 0.48600003 -2.0216269e+38
0.093307137 0.1214271 0.48600003 -2.0082825e+38
0.09415926 0.1214271 0.48600003 -2.0478993e+38
0.095011376 0.1214271 0.48600003 -2.0478993e+38
0.095863499 0.1214271 0.48600003 -2.0613463e+38
0.096715622 0.1214271 0.48600003 -2.0613463e+38
0.097567737 0.1214271 0.48600003 -1.9681466e+38
0.09841986 0.1214271 0.48600003 -1.9681466e+38
0.099476241 0.12167695 0.48700002 -1.8619639e+38
0.099918082 0.12117725 0.48500001 -1.8619639e+38
0.10159953 0.12217665 0.48900002 -1.8619639e+38
0.10245691 0.12217665 0.48900002 -1.8485676e+38
0.10331429 0.12217665 0.48900002 -1.9548529e+38
0.10417167 0.12217665 0.48900002 -1.9548529e+38
0.10481427 0.1219268 0.48800004 -1.9281655e+38
0.10502028 0.12117725 0.48500001 -1.9281655e+38
0.10587065 0.12117725 0.48500001 -1.8619639e+38
0.10650098 0.1209274 0.48400003 -1.8619639e+38
0.10734959 0.1209274 0.48400003 -1.9548529e+38
0.10797465 0.12067755 0.48300001 -1.9548529e+38
0.10882151 0.12067755 0.48300001 -1.9547515e+38
0.10966837 0.12067755 0.48300001 -1.9814403e+38
0.11051523 0.12067755 0.48300001 -1.9283773e+38
0.11136209 0.12067755 0.48300001 -1.9417219e+38
0.11220895 0.12067755 0.48300001 -1.9286846e+38
0.11413849 0.1209274 0.48400003 -1.9553744e+38
0.11498711 0.1209274 0.48400003 -1.9553744e+38
0.11583572 0.1209274 0.48400003 -1.9553744e+38
0.11668433 0.1209274 0.48400003 -1.9553744e+38
0.11753295 0.1209274 0.48400003 -1.9553237e+38
0.11838156 0.1209274 0.48400003 -1.9419793e+38
0.11923017 0.1209274 0.48400003 -2.0482646e+38
0.12007879 0.1209274 0.48400003 -2.0082313e+38
0.1209274 0.1209274 0.48400003 -2.0745382e+38
0.12177601 0.1209274 0.48400003 -2.0477975e+38
0.12237127 0.12067755 0.48300001 -2.0079231e+38
0.12432186 0.1209274 0.48400003 -1.9553744e+38
0.12517047 0.1209274 0.48400003 -1.94203e+38
0.12601908 0.1209274 0.48400003 -1.9152894e+38
0.1268677 0.1209274 0.48400003 -1.9152894e+38
0.1277163 0.1209274 0.48400003 -1.9815429e+38
0.12856492 0.1209274 0.48400003 -1.9815429e+38
0.12941353 0.1209274 0.48400003 -1.9283773e+38
0.13053128 0.12117725 0.48500001 -1.9150329e+38
0.13111076 0.1209274 0.48400003 -1.8752572e+38
0.13195938 0.1209274 0.48400003 -1.8752572e+38
0.13280798 0.1209274 0.48400003 -1.9814918e+38
0.13365661 0.1209274 0.48400003 -1.9681474e+38
0.13478312 0.12117725 0.48500001 -1.9948873e+38
0.13535382 0.1209274 0.48400003 -1.9681466e+38
0.13620244 0.1209274 0.48400003 -1.9680959e+38
0.13705105 0.1209274 0.48400003 -1.9680959e+38
0.13789967 0.1209274 0.48400003 -1.9815429e+38
0.13874827 0.1209274 0.48400003 -1.9681466e+38
0.13959689 0.1209274 0.48400003 -1.9681466e+38
0.1404455 0.1209274 0.48400003 -1.9815429e+38
0.14129412 0.1209274 0.48400003 -1.9152894e+38
0.14214273 0.1209274 0.48400003 -1.901945e+38
0.14328678 0.12117725 0.48500001 -1.9286846e+38
0.14413714 0.12117725 0.48500001 -1.9153401e+38
0.14498751 0.12117725 0.48500001 -1.9018943e+38
0.14583789 0.12117725 0.48500001 -1.9152387e+38
0.14668825 0.12117725 0.48500001 -1.9286846e+38
0.14784282 0.1214271 0.48600003 -1.9286846e+38
0.14869493 0.1214271 0.48600003 -2.0081806e+38
0.14985476 0.12167695 0.48700002 -2.0215253e+38
0.15070865 0.12167695 0.48700002 -1.9682492e+38
0.15156251 0.12167695 0.48700002 -1.9282162e+38
0.15241639 0.12167695 0.48700002 -1.8752572e+38
0.15327026 0.12167695 0.48700002 -1.8752572e+38
0.15412414 0.12167695 0.48700002 -1.9546497e+38
0.15497801 0.12167695 0.48700002 -1.9546497e+38
0.15583189 0.12167695 0.48700002 -1.9281655e+38
0.15668575 0.12167695 0.48700002 -1.9281655e+38
0.15753964 0.12167695 0.48700002 -1.9281655e+38
0.1583935 0.12167695 0.48700002 -1.9281655e+38
0.15924737 0.12167695 0.48700002 -1.9548529e+38
0.16010125 0.12167695 0.48700002 -1.9548529e+38
0.16095512 0.12167695 0.48700002 -1.9548529e+38
0.16214125 0.1219268 0.48800004 -1.9548529e+38
0.16299687 0.1219268 0.48800004 -1.8619631e+38
0.16385251 0.1219268 0.48800004 -1.8753075e+38
0.16470814 0.1219268 0.48800004 -1.8753083e+38
0.16590303 0.12217665 0.48900002 -1.8753083e+38
0.16676041 0.12217665 0.48900002 -1.8753083e+38
0.16761778 0.12217665 0.48900002 -1.8619639e+38
0.16847517 0.12217665 0.48900002 -1.8619639e+38
0.16933255 0.12217665 0.48900002 -1.8485676e+38
0.17018993 0.12217665 0.48900002 -1.8485676e+38
0.17104732 0.12217665 0.48900002 -1.8485676e+38
0.17190468 0.12217665 0.48900002 -1.8085853e+38
0.17311537 0.1224265 0.49000001 -1.8486187e+38
0.1739745 0.1224265 0.49000001 -1.8619631e+38
0.17483363 0.1224265 0.49000001 -1.8619631e+38
0.17605132 0.12267635 0.49100003 -1.8619631e+38
0.1769122 0.12267635 0.49100003 -1.8619631e+38
0.17777309 0.12267635 0.49100003 -1.8219293e+38
0.17863399 0.12267635 0.49100003 -1.7819482e+38
0.17949487 0.12267635 0.49100003 -1.8352737e+38
0.18035576 0.12267635 0.49100003 -1.8486702e+38
0.18121664 0.12267635 0.49100003 -1.8351723e+38
0.18207753 0.12267635 0.49100003 -1.8351723e+38
0.18293841 0.12267635 0.49100003 -1.8880295e+38
0.1837993 0.12267635 0.49100003 -1.8880295e+38
0.18466018 0.12267635 0.49100003 -1.7685016e+38
0.18552108 0.12267635 0.49100003 -1.7418126e+38
0.18638197 0.12267635 0.49100003 -1.7016771e+38
0.18724285 0.12267635 0.49100003 -1.701625e+38
0.18810374 0.12267635 0.49100003 -1.7016232e+38
0.18934947 0.1229262 0.49200001 -1.7016232e+38
0.19021212 0.1229262 0.49200001 -1.7014688e+38
0.19146313 0.12317605 0.49300003 -1.701521e+38
0.19232751 0.12317605 0.49300003 -1.701625e+38
0.19319192 0.12317605 0.49300003 -1.701625e+38
0.19444993 0.1234259 0.49400002 -1.7016232e+38
0.19531608 0.1234259 0.49400002 -1.7015708e+38
0.19618222 0.1234259 0.49400002 -1.7014688e+38
0.19704837 0.1234259 0.49400002 -1.7014688e+38
0.19791451 0.1234259 0.49400002 -1.7014147e+38
0.19878066 0.1234259 0.49400002 -1.7014147e+38
0.19924267 0.12317605 0.49300003 -1.7014666e+38
0.20010705 0.12317605 0.49300003 -1.7014666e+38
0.20097145 0.12317605 0.49300003 -1.7014145e+38
0.20183584 0.12317605 0.49300003 -1.7014145e+38
0.20270024 0.12317605 0.49300003 -1.7014126e+38
0.20356463 0.12317605 0.49300003 -1.7014128e+38
0.20442902 0.12317605 0.49300003 -1.7014145e+38
0.20529342 0.12317605 0.49300003 -1.7014145e+38
0.2061578 0.12317605 0.49300003 -1.7811686e+38
0.2070222 0.12317605 0.49300003 -1.7147063e+38
0.20746492 0.1229262 0.49200001 -1.7014118e+38
0.20832756 0.1229262 0.49200001 -1.7014118e+38
0.2091902 0.1229262 0.49200001 -1.7014118e+38
0.21005283 0.1229262 0.49200001 -1.7014118e+38
0.21091548 0.1229262 0.49200001 -1.7014118e+38
0.21177812 0.1229262 0.49200001 -1.7014118e+38
0.21264076 0.1229262 0.49200001 -1.7014118e+38
0.21350341 0.1229262 0.49200001 -1.7014118e+38
0.21436603 0.1229262 0.49200001 -1.7014118e+38
0.21522868 0.1229262 0.49200001 -1.7147045e+38
0.21609132 0.1229262 0.49200001 -2.6605469e+38
0.21695396 0.1229262 0.49200001 -3.0075015e+38
0.21781659 0.1229262 0.49200001 -3.1817052e+38
0.21912371 0.12317605 0.49300003 nan
0.21998811 0.12317605 0.49300003 nan
0.22085249 0.12317605 0.49300003 nan
0.22216661 0.1234259 0.49400002 nan
0.22303277 0.1234259 0.49400002 nan
0.22389892 0.1234259 0.49400002 nan
0.22476506 0.1234259 0.49400002 nan
0.22563121 0.1234259 0.49400002 nan
0.22603886 0.12317605 0.49300003 nan
0.2273635 0.1234259 0.49400002 nan
0.22822964 0.1234259 0.49400002 nan
0.017943613 0.11976319 0.47600001 -2.1553285e+38
0.018778199 0.11976319 0.47600001 -2.168466e+38
0.019612787 0.11976319 0.47600001 -2.168466e+38
0.020447373 0.11976319 0.47600001 -2.1286963e+38
0.02123725 0.11951158 0.47500002 -2.0886111e+38
0.022116547 0.11976319 0.47600001 -2.088713e+38
0.022951134 0.11976319 0.47600001 -2.088713e+38
0.02378572 0.11976319 0.47600001 -2.1417772e+38
0.033104688 0.12026639 0.47800002 -2.168466e+38
0.033942781 0.12026639 0.47800002 -2.168466e+38
0.034780875 0.12026639 0.47800002 -2.168466e+38
0.035618965 0.12026639 0.47800002 -2.1551216e+38
0.036457058 0.12026639 0.47800002 -2.1417772e+38
0.037295152 0.12026639 0.47800002 -2.115191e+38
0.038133245 0.12026639 0.47800002 -2.1551723e+38
0.038971338 0.12026639 0.47800002 -2.1550705e+38
0.039809432 0.12026639 0.47800002 -2.1150892e+38
0.040647525 0.12026639 0.47800002 -2.1550705e+38
0.041485619 0.12026639 0.47800002 -2.1550705e+38
0.042323712 0.12026639 0.47800002 -2.1550705e+38
0.044931795 0.120518 0.47900003 -2.1416754e+38
0.045867201 0.1207696 0.48000002 -2.1417261e+38
0.0467088 0.1207696 0.48000002 -2.1417261e+38
0.070299901 0.12227922 0.48600003 -2.0619734e+38
0.071152017 0.12227922 0.48600003 -2.0619734e+38
0.072152294 0.12253083 0.48700002 -2.1016929e+38
0.073006168 0.12253083 0.48700002 -2.0883485e+38
0.073708378 0.12227922 0.48600003 -2.0883485e+38
0.074560501 0.12227922 0.48600003 -2.0883485e+38
0.075567789 0.12253083 0.48700002 -1.9953555e+38
0.076421663 0.12253083 0.48700002 -2.0086999e+38
0.077275537 0.12253083 0.48700002 -2.0353366e+38
0.078129411 0.12253083 0.48700002 -2.0219922e+38
0.078983285 0.12253083 0.48700002 -2.0883485e+38
0.079837158 0.12253083 0.48700002 -2.0883485e+38
0.080691032 0.12253083 0.48700002 -2.0353366e+38
0.081377462 0.12227922 0.48600003 -2.0219922e+38
0.082229577 0.12227922 0.48600003 -1.9953555e+38
0.087522015 0.12253083 0.48700002 -1.9953555e+38
0.088375889 0.12253083 0.48700002 -1.9687188e+38
0.089229763 0.12253083 0.48700002 -2.0215253e+38
0.089898661 0.12227922 0.48600003 -2.0215253e+38
0.090750776 0.12227922 0.48600003 -2.0482646e+38
0.091602899 0.12227922 0.48600003 -2.0082313e+38
0.092455022 0.12227922 0.48600003 -2.0483664e+38
0.093307137 0.12227922 0.48600003 -2.0483664e+38
0.09415926 0.12227922 0.48600003 -2.0216269e+38
0.095011376 0.12227922 0.48600003 -1.9815936e+38
0.095863499 0.12227922 0.48600003 -1.9815936e+38
0.096715622 0.12227922 0.48600003 -1.9949381e+38
0.097567737 0.12227922 0.48600003 -1.9681466e+38
0.09841986 0.12227922 0.48600003 -1.9548022e+38
0.099271983 0.12227922 0.48600003 -1.8619639e+38
0.1001241 0.12227922 0.48600003 -1.8619639e+38
0.10118399 0.12253083 0.48700002 -1.8619639e+38
0.10203786 0.12253083 0.48700002 -1.8485676e+38
0.10289174 0.12253083 0.48700002 -1.8619631e+38
0.10395864 0.12278242 0.48800004 -1.8753075e+38
0.10459948 0.12253083 0.48700002 -1.8619639e+38
0.10523682 0.12227922 0.48600003 -1.8619639e+38
0.10608894 0.12227922 0.48600003 -1.8753083e+38
0.10694106 0.12227922 0.48600003 -1.901945e+38
0.10757139 0.12202761 0.48500001 -1.8619639e+38
0.10842175 0.12202761 0.48500001 -1.8753083e+38
0.10949742 0.12227922 0.48600003 -1.8752572e+38
0.11034954 0.12227922 0.48600003 -1.9018939e+38
0.11120166 0.12227922 0.48600003 -1.94203e+38
0.11228434 0.12253083 0.48700002 -1.94203e+38
0.11546226 0.12227922 0.48600003 -2.021576e+38
0.11583572 0.12177601 0.48400003 -1.9554255e+38
0.11668433 0.12177601 0.48400003 -1.9554255e+38
0.11753295 0.12177601 0.48400003 -1.9553744e+38
0.11838156 0.12177601 0.48400003 -1.9553744e+38
0.11923017 0.12177601 0.48400003 -1.9553744e+38
0.12007879 0.12177601 0.48400003 -1.9286854e+38
0.1209274 0.12177601 0.48400003 -1.9417732e+38
0.12177601 0.12177601 0.48400003 -1.9417732e+38
0.12262463 0.12177601 0.48400003 -2.0079231e+38
0.12347324 0.12177601 0.48400003 -2.0613009e+38
0.12432186 0.12177601 0.48400003 -1.9553744e+38
0.12517047 0.12177601 0.48400003 -1.94203e+38
0.12601908 0.12177601 0.48400003 -1.9020464e+38
0.1268677 0.12177601 0.48400003 -1.9287872e+38
0.1277163 0.12177601 0.48400003 -1.9286854e+38
0.12856492 0.12177601 0.48400003 -1.9286854e+38
0.12968092 0.12202761 0.48500001 -1.9416708e+38
0.13053128 0.12202761 0.48500001 -1.9283262e+38
0.13111076 0.12177601 0.48400003 -1.9283773e+38
0.13223201 0.12202761 0.48500001 -1.9417219e+38
0.13308239 0.12202761 0.48500001 -1.9286854e+38
0.13393275 0.12202761 0.48500001 -1.9286854e+38
0.13506103 0.12227922 0.48600003 -1.9286854e+38
0.13563348 0.12202761 0.48500001 -1.9286854e+38
0.13648385 0.12202761 0.48500001 -1.9286854e+38
0.13705105 0.12177601 0.48400003 -1.9286854e+38
0.13789967 0.12177601 0.48400003 -1.9948873e+38
0.13903494 0.12202761 0.48500001 -1.9681466e+38
0.13988532 0.12202761 0.48500001 -1.9282162e+38
0.1404455 0.12177601 0.48400003 -1.9815936e+38
0.14129412 0.12177601 0.48400003 -1.9152894e+38
0.14243641 0.12202761 0.48500001 -1.9286338e+38
0.14328678 0.12202761 0.48500001 -1.9286854e+38
0.14413714 0.12202761 0.48500001 -1.9553744e+38
0.14498751 0.12202761 0.48500001 -1.9953048e+38
0.14583789 0.12202761 0.48500001 -1.9553237e+38
0.14668825 0.12202761 0.48500001 -1.9020464e+38
0.14784282 0.12227922 0.48600003 -1.9287872e+38
0.14869493 0.12227922 0.48600003 -1.9286854e+38
0.14985476 0.12253083 0.48700002 -1.94203e+38
0.15070865 0.12253083 0.48700002 -1.9948873e+38
0.15156251 0.12253083 0.48700002 -1.9681466e+38
0.15241639 0.12253083 0.48700002 -1.8752572e+38
0.15327026 0.12253083 0.48700002 -1.8752572e+38
0.15412414 0.12253083 0.48700002 -1.9016885e+38
0.15497801 0.12253083 0.48700002 -1.9016885e+38
0.15583189 0.12253083 0.48700002 -1.8753083e+38
0.15668575 0.12253083 0.48700002 -1.8753083e+38
0.15753964 0.12253083 0.48700002 -1.9281655e+38
0.1583935 0.12253083 0.48700002 -1.9548022e+38
0.15924737 0.12253083 0.48700002 -1.8619631e+38
0.16010125 0.12253083 0.48700002 -1.8619631e+38
0.16095512 0.12253083 0.48700002 -1.8619631e+38
0.161809 0.12253083 0.48700002 -1.8619631e+38
0.16299687 0.12278242 0.48800004 -1.8619639e+38
0.16385251 0.12278242 0.48800004 -1.8753083e+38
0.16470814 0.12278242 0.48800004 -1.8619631e+38
0.16556376 0.12278242 0.48800004 -1.8753075e+38
0.16676041 0.12303403 0.48900002 -1.901945e+38
0.16761778 0.12303403 0.48900002 -1.8753083e+38
0.16847517 0.12303403 0.48900002 -1.8753083e+38
0.16933255 0.12303403 0.48900002 -1.835223e+38
0.17018993 0.12303403 0.48900002 -1.8352737e+38
0.17104732 0.12303403 0.48900002 -1.8352737e+38
0.17190468 0.12303403 0.48900002 -1.9148716e+38
0.17276207 0.12303403 0.48900002 -1.9682492e+38
0.17361945 0.12303403 0.48900002 -1.9548529e+38
0.17483363 0.12328563 0.49000001 -1.9548529e+38
0.17569277 0.12328563 0.49000001 -1.8619631e+38
0.1769122 0.12353723 0.49100003 -1.8619631e+38
0.17777309 0.12353723 0.49100003 -1.8352737e+38
0.17863399 0.12353723 0.49100003 -1.8085849e+38
0.17949487 0.12353723 0.49100003 -1.7819989e+38
0.18035576 0.12353723 0.49100003 -1.8353763e+38
0.18121664 0.12353723 0.49100003 -1.8883441e+38
0.18207753 0.12353723 0.49100003 -1.8616033e+38
0.18293841 0.12353723 0.49100003 -1.821879e+38
0.1837993 0.12353723 0.49100003 -1.781846e+38
0.18466018 0.12353723 0.49100003 -1.8747362e+38
0.18552108 0.12353723 0.49100003 -1.8613918e+38
0.18638197 0.12353723 0.49100003 -1.7551065e+38
0.18724285 0.12353723 0.49100003 -1.7150211e+38
0.18810374 0.12353723 0.49100003 -1.7017274e+38
0.18934947 0.12378884 0.49200001 -1.7016753e+38
0.19021212 0.12378884 0.49200001 -1.701521e+38
0.19107476 0.12378884 0.49200001 -1.7016771e+38
0.19232751 0.12404044 0.49300003 -1.7016771e+38
0.19319192 0.12404044 0.49300003 -1.7150215e+38
0.1940563 0.12404044 0.49300003 -1.7016753e+38
0.19492069 0.12404044 0.49300003 -1.7016753e+38
0.19578509 0.12404044 0.49300003 -1.7015232e+38
0.19664948 0.12404044 0.49300003 -1.7014191e+38
0.19751388 0.12404044 0.49300003 -1.7016232e+38
0.19837826 0.12404044 0.49300003 -1.7016232e+38
0.19924267 0.12404044 0.49300003 -1.7016232e+38
0.20010705 0.12404044 0.49300003 -1.7016232e+38
0.20097145 0.12404044 0.49300003 -1.7016211e+38
0.20183584 0.12404044 0.49300003 -1.7016211e+38
0.20228907 0.12378884 0.49200001 -1.7147055e+38
0.20315172 0.12378884 0.49200001 -1.7280499e+38
0.20401436 0.12378884 0.49200001 -1.7413945e+38
0.204877 0.12378884 0.49200001 -1.7680312e+38
0.20573963 0.12378884 0.49200001 -1.7412939e+38
0.20660228 0.12378884 0.49200001 -1.7014157e+38
0.20746492 0.12378884 0.49200001 -1.7014145e+38
0.20832756 0.12378884 0.49200001 -1.7014147e+38
0.2091902 0.12378884 0.49200001 -1.7014161e+38
0.21005283 0.12378884 0.49200001 -1.7014165e+38
0.21091548 0.12378884 0.49200001 -1.7014193e+38
0.21177812 0.12378884 0.49200001 -1.7014189e+38
0.21264076 0.12378884 0.49200001 -1.7014126e+38
0.21350341 0.12378884 0.49200001 -1.7014124e+38
0.21436603 0.12378884 0.49200001 -1.7014122e+38
0.21522868 0.12378884 0.49200001 -1.7014118e+38
0.21609132 0.12378884 0.49200001 -1.7014118e+38
0.21695396 0.12378884 0.49200001 -1.7014118e+38
0.21781659 0.12378884 0.49200001 -1.7014118e+38
0.21867923 0.12378884 0.49200001 -1.7014118e+38
0.21998811 0.12404044 0.49300003 -1.7014118e+38
0.22085249 0.12404044 0.49300003 -1.7014118e+38
0.2217169 0.12404044 0.49300003 -1.7420158e+38
0.22258128 0.12404044 0.49300003 -2.2224144e+38
0.22344567 0.12404044 0.49300003 -2.529339e+38
0.22431007 0.12404044 0.49300003 -2.7695385e+38
0.22517446 0.12404044 0.49300003 -2.836269e+38
0.22603886 0.12404044 0.49300003 -3.2366012e+38
0.2273635 0.12429205 0.49400002 nan
0.22822964 0.12429205 0.49400002 nan
0.22909579 0.12429205 0.49400002 nan
0.22996193 0.12429205 0.49400002 nan
0.23082809 0.12429205 0.49400002 nan
0.23122522 0.12404044 0.49300003 nan
0.017905917 0.12034442 0.47500002 -2.1684149e+38
0.01873875 0.12034442 0.47500002 -2.1550705e+38
0.019571584 0.12034442 0.47500002 -2.1550705e+38
0.020404417 0.12034442 0.47500002 -2.0886623e+38
0.02123725 0.12034442 0.47500002 -2.0886623e+38
0.022070084 0.12034442 0.47500002 -2.0753686e+38
0.022951134 0.12059777 0.47600001 -2.0753686e+38
0.02378572 0.12059777 0.47600001 -2.1286397e+38
0.024620306 0.12059777 0.47600001 -2.1152953e+38
0.033035431 0.12085113 0.47700003 -2.0753686e+38
0.033942781 0.12110449 0.47800002 -2.088713e+38
0.034780875 0.12110449 0.47800002 -2.088713e+38
0.035618965 0.12110449 0.47800002 -2.1020067e+38
0.036457058 0.12110449 0.47800002 -2.0886623e+38
0.037295152 0.12110449 0.47800002 -2.0754197e+38
0.038133245 0.12110449 0.47800002 -2.0887641e+38
0.038971338 0.12110449 0.47800002 -2.088713e+38
0.039809432 0.12110449 0.47800002 -2.062024e+38
0.040647525 0.12110449 0.47800002 -2.1551216e+38
0.041485619 0.12110449 0.47800002 -2.1551216e+38
0.042323712 0.12110449 0.47800002 -2.1150892e+38
0.043161806 0.12110449 0.47800002 -2.1550705e+38
0.045867201 0.1216112 0.48000002 -2.062024e+38
0.072004139 0.12313134 0.48600003 -2.1016929e+38
0.072856262 0.12313134 0.48600003 -2.1016929e+38
0.073556714 0.12287799 0.48500001 -2.1016422e+38
0.074407086 0.12287799 0.48500001 -2.0882978e+38
0.075412616 0.12313134 0.48600003 -2.0353366e+38
0.076264739 0.12313134 0.48600003 -2.0219922e+38
0.077116862 0.12313134 0.48600003 -2.0220429e+38
0.077808551 0.12287799 0.48500001 -2.0220429e+38
0.078658916 0.12287799 0.48500001 -2.0088017e+38
0.079673223 0.12313134 0.48600003 -2.0088017e+38
0.080525339 0.12313134 0.48600003 -1.9557894e+38
0.081210017 0.12287799 0.48500001 -1.9157561e+38
0.082060382 0.12287799 0.48500001 -2.0086999e+38
0.087522015 0.1233847 0.48700002 -1.9953555e+38
0.088194422 0.12313134 0.48600003 -1.9687188e+38
0.089046538 0.12313134 0.48600003 -1.9419793e+38
0.089898661 0.12313134 0.48600003 -1.9553237e+38
0.090750776 0.12313134 0.48600003 -2.0482646e+38
0.091602899 0.12313134 0.48600003 -2.0082313e+38
0.092455022 0.12313134 0.48600003 -2.0216269e+38
0.093307137 0.12313134 0.48600003 -2.0482638e+38
0.09415926 0.12313134 0.48600003 -2.0082318e+38
0.095011376 0.12313134 0.48600003 -2.0082318e+38
0.096060753 0.1233847 0.48700002 -1.9286854e+38
0.096914619 0.1233847 0.48700002 -1.9286854e+38
0.097768493 0.1233847 0.48700002 -1.9548022e+38
0.098622367 0.1233847 0.48700002 -1.9681466e+38
0.099476241 0.1233847 0.48700002 -1.901945e+38
0.10033011 0.1233847 0.48700002 -1.8753083e+38
0.10118399 0.1233847 0.48700002 -1.8753083e+38
0.10224739 0.12363806 0.48800004 -1.8619639e+38
0.10289174 0.1233847 0.48700002 -1.8619631e+38
0.10395864 0.12363806 0.48800004 -1.8619631e+38
0.10459948 0.1233847 0.48700002 -1.8753591e+38
0.10523682 0.12313134 0.48600003 -1.9019957e+38
0.10608894 0.12313134 0.48600003 -1.9285827e+38
0.10694106 0.12313134 0.48600003 -1.9285827e+38
0.10779318 0.12313134 0.48600003 -1.8752572e+38
0.1086453 0.12313134 0.48600003 -1.9018939e+38
0.10949742 0.12313134 0.48600003 -1.9814918e+38
0.11034954 0.12313134 0.48600003 -1.9814918e+38
0.11228434 0.1233847 0.48700002 -1.9419793e+38
0.11313821 0.1233847 0.48700002 -2.021576e+38
0.11399209 0.1233847 0.48700002 -2.021576e+38
0.11484596 0.1233847 0.48700002 -2.0481619e+38
0.11546226 0.12313134 0.48600003 -2.0215253e+38
0.11631438 0.12313134 0.48600003 -1.9554762e+38
0.1171665 0.12313134 0.48600003 -1.9554762e+38
0.11801862 0.12313134 0.48600003 -1.9420809e+38
0.11887074 0.12313134 0.48600003 -1.9554255e+38
0.11947652 0.12287799 0.48500001 -1.8757765e+38
0.12032688 0.12287799 0.48500001 -1.7823656e+38
0.1209274 0.12262463 0.48400003 -1.8888136e+38
0.12177601 0.12262463 0.48400003 -1.8754692e+38
0.12262463 0.12262463 0.48400003 -1.9419793e+38
0.12347324 0.12262463 0.48400003 -1.9953048e+38
0.12457871 0.12287799 0.48500001 -2.0482646e+38
0.12542908 0.12287799 0.48500001 -2.021576e+38
0.12601908 0.12262463 0.48400003 -1.9554255e+38
0.12712982 0.12287799 0.48500001 -1.9554255e+38
0.12798019 0.12287799 0.48500001 -1.8757765e+38
0.12883055 0.12287799 0.48500001 -1.8757765e+38
0.1299483 0.12313134 0.48600003 -1.9684101e+38
0.13080043 0.12313134 0.48600003 -1.9283769e+38
0.13138165 0.12287799 0.48500001 -1.9285827e+38
0.13223201 0.12287799 0.48500001 -1.9285827e+38
0.13335678 0.12313134 0.48600003 -1.9286854e+38
0.1342089 0.12313134 0.48600003 -1.915289e+38
0.13506103 0.12313134 0.48600003 -1.9286854e+38
0.13591313 0.12313134 0.48600003 -1.915289e+38
0.13648385 0.12287799 0.48500001 -1.9018943e+38
0.13733421 0.12287799 0.48500001 -1.9152387e+38
0.13818458 0.12287799 0.48500001 -1.9286854e+38
0.13903494 0.12287799 0.48500001 -1.9286854e+38
0.13988532 0.12287799 0.48500001 -1.9019957e+38
0.14073569 0.12287799 0.48500001 -1.9153401e+38
0.14158605 0.12287799 0.48500001 -1.9286854e+38
0.14243641 0.12287799 0.48500001 -1.9286854e+38
0.14328678 0.12287799 0.48500001 -1.94203e+38
0.14413714 0.12287799 0.48500001 -1.9553744e+38
0.14498751 0.12287799 0.48500001 -1.94203e+38
0.14583789 0.12287799 0.48500001 -1.9553744e+38
0.14668825 0.12287799 0.48500001 -1.9420809e+38
0.14784282 0.12313134 0.48600003 -1.9286846e+38
0.14869493 0.12313134 0.48600003 -1.9286854e+38
0.14985476 0.1233847 0.48700002 -1.94203e+38
0.15070865 0.1233847 0.48700002 -1.9286854e+38
0.15156251 0.1233847 0.48700002 -1.915289e+38
0.15241639 0.1233847 0.48700002 -1.901945e+38
0.15327026 0.1233847 0.48700002 -1.8753083e+38
0.15412414 0.1233847 0.48700002 -1.8752576e+38
0.15497801 0.1233847 0.48700002 -1.8752576e+38
0.15583189 0.1233847 0.48700002 -1.8753083e+38
0.15668575 0.1233847 0.48700002 -1.8619639e+38
0.15753964 0.1233847 0.48700002 -1.9549555e+38
0.1583935 0.1233847 0.48700002 -1.9549555e+38
0.15924737 0.1233847 0.48700002 -1.9682492e+38
0.16010125 0.1233847 0.48700002 -1.9682492e+38
0.16095512 0.1233847 0.48700002 -1.8620654e+38
0.161809 0.1233847 0.48700002 -1.8754098e+38
0.16266286 0.1233847 0.48700002 -1.9682492e+38
0.16385251 0.12363806 0.48800004 -1.9682492e+38
0.16470814 0.12363806 0.48800004 -1.8620654e+38
