# .PCD v0.7 - Point Cloud Data file format
VERSION 0.7
FIELDS x y z rgb
SIZE 4 4 4 4
TYPE F F F F
COUNT 1 1 1 1
WIDTH 1150
HEIGHT 1
VIEWPOINT 0 0 0 1 0 0 0
POINTS 1150
DATA ascii
-0.32772693 0.01094343 0.65700001 nan
-0.32707205 0.010960086 0.65800005 nan
-0.32591838 0.010960086 0.65800005 nan
-0.32525823 0.010976743 0.65900004 nan
-0.32410279 0.010976743 0.65900004 nan
-0.32294735 0.010976743 0.65900004 nan
-0.32179189 0.010976743 0.65900004 nan
-0.32160956 0.011010056 0.66100001 nan
-0.3209354 0.011026713 0.66200006 nan
-0.31977469 0.011026713 0.66200006 nan
-0.31861398 0.011026713 0.66200006 nan
-0.31745327 0.011026713 0.66200006 nan
-0.31629255 0.011026713 0.66200006 nan
-0.31560788 0.01104337 0.66300005 -2.9300439e+38
-0.31444544 0.01104337 0.66300005 -2.409664e+38
-0.31328297 0.01104337 0.66300005 -1.7038173e+38
-0.31142706 0.011060026 0.66400003 -1.7014135e+38
-0.31119737 0.01109334 0.66600001 -1.7014126e+38
-0.31002966 0.01109334 0.66600001 -1.7014118e+38
-0.30886194 0.01109334 0.66600001 -1.7014118e+38
-0.30769423 0.01109334 0.66600001 -1.7014118e+38
-0.30652651 0.01109334 0.66600001 -1.7015684e+38
-0.30535877 0.01109334 0.66600001 -1.7681339e+38
-0.3046478 0.011109997 0.66700006 -1.7814783e+38
-0.30347833 0.011109997 0.66700006 -1.8612307e+38
-0.30230886 0.011109997 0.66700006 -1.8745749e+38
-0.30159086 0.011126653 0.66800004 -1.8215115e+38
-0.30041963 0.011126653 0.66800004 -1.8215115e+38
-0.30014437 0.011159967 0.67000002 -1.8745246e+38
-0.29896963 0.011159967 0.67000002 -1.8745246e+38
-0.29779491 0.011159967 0.67000002 -1.8745246e+38
-0.29662016 0.011159967 0.67000002 -1.8745246e+38
-0.29544544 0.011159967 0.67000002 -1.8745246e+38
-0.29427069 0.011159967 0.67000002 -1.8745246e+38
-0.11988066 0.01069358 0.64200002 nan
-0.11894 0.010710237 0.64300001 nan
-0.11762938 0.01069358 0.64200002 nan
-0.11650374 0.01069358 0.64200002 -3.1017917e+38
-0.1153781 0.01069358 0.64200002 -1.7014118e+38
-0.11425246 0.01069358 0.64200002 -1.7014118e+38
-0.11312682 0.01069358 0.64200002 -1.9549555e+38
-0.11200118 0.01069358 0.64200002 -2.0613463e+38
-0.11087554 0.01069358 0.64200002 -2.0079689e+38
-0.1097499 0.01069358 0.64200002 -1.9546414e+38
-0.10862426 0.01069358 0.64200002 -1.9947265e+38
-0.10733118 0.010676923 0.64100003 -1.9946239e+38
-0.10637298 0.01069358 0.64200002 -2.0080204e+38
-0.10524734 0.01069358 0.64200002 -2.0081214e+38
-0.1041217 0.01069358 0.64200002 -2.0347581e+38
-0.10299606 0.01069358 0.64200002 -2.0480015e+38
-0.10171174 0.010676923 0.64100003 -1.7944578e+38
-0.10058785 0.010676923 0.64100003 -2.0603034e+38
-0.099463969 0.010676923 0.64100003 -2.1267648e+38
-0.098340079 0.010676923 0.64100003 -2.56541e+38
-0.097064532 0.010660267 0.64000005 nan
-0.0959424 0.010660267 0.64000005 nan
-0.094820268 0.010660267 0.64000005 nan
-0.093405329 0.010626953 0.63800001 nan
-0.092286699 0.010626953 0.63800001 nan
-0.091025174 0.010610296 0.63700002 nan
-0.083617344 0.011109997 0.66700006 nan
-0.082447872 0.011109997 0.66700006 nan
-0.081278399 0.011109997 0.66700006 nan
-0.080108926 0.011109997 0.66700006 nan
-0.078939453 0.011109997 0.66700006 nan
-0.07776998 0.011109997 0.66700006 nan
-0.076600499 0.011109997 0.66700006 nan
-0.075431027 0.011109997 0.66700006 nan
-0.07415022 0.01109334 0.66600001 nan
-0.072982498 0.01109334 0.66600001 nan
-0.036783181 0.01109334 0.66600001 -1.9947265e+38
-0.035615459 0.01109334 0.66600001 nan
-0.034447741 0.01109334 0.66600001 nan
-0.029642729 0.01104337 0.66300005 -2.6071159e+38
-0.028480269 0.01104337 0.66300005 -2.3401757e+38
-0.027317809 0.01104337 0.66300005 -2.354663e+38
-0.025030587 0.011060026 0.66400003 -2.4614183e+38
-0.023938259 0.01109334 0.66600001 -2.4614183e+38
0.089596212 0.01044373 0.62700003 nan
0.090695553 0.01044373 0.62700003 nan
0.092087694 0.010477044 0.62900001 nan
0.093190543 0.010477044 0.62900001 nan
0.094443299 0.0104937 0.63000005 nan
0.0955479 0.0104937 0.63000005 nan
0.0966525 0.0104937 0.63000005 nan
0.097757101 0.0104937 0.63000005 nan
0.098704778 0.010477044 0.62900001 nan
0.09980762 0.010477044 0.62900001 nan
0.10075004 0.010460387 0.62800002 nan
0.10185114 0.010460387 0.62800002 nan
0.10295223 0.010460387 0.62800002 nan
0.10405332 0.010460387 0.62800002 nan
0.10515441 0.010460387 0.62800002 nan
0.1064247 0.010477044 0.62900001 nan
0.10752755 0.010477044 0.62900001 nan
0.1086304 0.010477044 0.62900001 nan
0.10973325 0.010477044 0.62900001 nan
0.11083609 0.010477044 0.62900001 nan
0.11193894 0.010477044 0.62900001 nan
0.11304178 0.010477044 0.62900001 nan
0.11414463 0.010477044 0.62900001 nan
0.1154307 0.0104937 0.63000005 nan
0.11635032 0.010477044 0.62900001 nan
0.11745317 0.010477044 0.62900001 nan
0.1187445 0.0104937 0.63000005 nan
0.11965887 0.010477044 0.62900001 nan
0.1209537 0.0104937 0.63000005 nan
0.1220583 0.0104937 0.63000005 nan
0.1231629 0.0104937 0.63000005 nan
0.1242675 0.0104937 0.63000005 nan
0.1255711 0.010510356 0.63100004 nan
0.12667745 0.010510356 0.63100004 nan
0.12778381 0.010510356 0.63100004 nan
0.12889016 0.010510356 0.63100004 nan
0.12999652 0.010510356 0.63100004 nan
0.13110287 0.010510356 0.63100004 nan
0.13220923 0.010510356 0.63100004 nan
0.13331558 0.010510356 0.63100004 nan
0.13442193 0.010510356 0.63100004 nan
0.1353135 0.0104937 0.63000005 nan
0.1364181 0.0104937 0.63000005 nan
0.13774098 0.010510356 0.63100004 nan
0.13884734 0.010510356 0.63100004 nan
0.1399537 0.010510356 0.63100004 nan
0.14106005 0.010510356 0.63100004 nan
0.14216641 0.010510356 0.63100004 nan
0.14349981 0.010527013 0.63200003 nan
0.14460792 0.010527013 0.63200003 nan
0.14571603 0.010527013 0.63200003 nan
0.14682414 0.010527013 0.63200003 nan
0.14951199 0.010560326 0.634 nan
0.1506236 0.010560326 0.634 nan
0.15197454 0.010576983 0.63500005 nan
0.15308791 0.010576983 0.63500005 nan
0.15395844 0.010560326 0.634 nan
0.15531465 0.010576983 0.63500005 nan
0.15642801 0.010576983 0.63500005 nan
0.15754138 0.010576983 0.63500005 nan
0.15865475 0.010576983 0.63500005 nan
0.15976812 0.010576983 0.63500005 nan
0.16088149 0.010576983 0.63500005 nan
0.16224995 0.01059364 0.63600004 nan
0.16362195 0.010610296 0.63700002 nan
0.16499743 0.010626953 0.63800001 nan
0.16663679 0.010660267 0.64000005 nan
0.16775893 0.010660267 0.64000005 nan
0.16914494 0.010676923 0.64100003 nan
0.17026883 0.010676923 0.64100003 nan
0.1716601 0.01069358 0.64200002 nan
0.1725166 0.010676923 0.64100003 nan
0.17364049 0.010676923 0.64100003 nan
0.17503701 0.01069358 0.64200002 nan
0.17616266 0.01069358 0.64200002 nan
0.17728829 0.01069358 0.64200002 nan
0.18066522 0.01069358 0.64200002 nan
0.18179086 0.01069358 0.64200002 nan
0.18375547 0.010676923 0.64100003 nan
0.18487936 0.010676923 0.64100003 nan
0.18600324 0.010676923 0.64100003 nan
0.18712713 0.010676923 0.64100003 nan
0.18825102 0.010676923 0.64100003 nan
0.18937491 0.010676923 0.64100003 nan
0.19109316 0.010710237 0.64300001 nan
0.19222057 0.010710237 0.64300001 nan
0.19334796 0.010710237 0.64300001 nan
0.19447535 0.010710237 0.64300001 nan
0.19590695 0.010726893 0.64400005 nan
0.19703609 0.010726893 0.64400005 nan
0.19816524 0.010726893 0.64400005 nan
0.19929439 0.010726893 0.64400005 nan
0.20104596 0.010760207 0.64600003 nan
0.20155267 0.010726893 0.64400005 nan
0.2023671 0.010710237 0.64300001 nan
0.20317802 0.01069358 0.64200002 nan
0.20398542 0.010676923 0.64100003 nan
0.20510931 0.010676923 0.64100003 nan
0.2062332 0.010676923 0.64100003 nan
0.20735709 0.010676923 0.64100003 nan
0.20815574 0.010660267 0.64000005 nan
0.20927787 0.010660267 0.64000005 nan
0.2104 0.010660267 0.64000005 nan
0.21284415 0.010726893 0.64400005 nan
0.2139733 0.010726893 0.64400005 nan
0.21510243 0.010726893 0.64400005 nan
0.21690311 0.010760207 0.64600003 nan
0.21803577 0.010760207 0.64600003 nan
0.21916842 0.010760207 0.64600003 nan
0.22030108 0.010760207 0.64600003 nan
0.22143373 0.010760207 0.64600003 nan
0.22291091 0.010776863 0.64700001 nan
0.22404532 0.010776863 0.64700001 nan
0.22517972 0.010776863 0.64700001 nan
0.22631413 0.010776863 0.64700001 nan
0.22709699 0.010760207 0.64600003 nan
0.22822964 0.010760207 0.64600003 nan
0.22936229 0.010760207 0.64600003 nan
0.23085175 0.010776863 0.64700001 nan
0.2316276 0.010760207 0.64600003 nan
0.23312058 0.010776863 0.64700001 nan
0.23461704 0.01079352 0.648 nan
0.23575319 0.01079352 0.648 nan
0.23688936 0.01079352 0.648 nan
0.23765819 0.010776863 0.64700001 nan
0.2387926 0.010776863 0.64700001 nan
0.23992701 0.010776863 0.64700001 nan
0.24106142 0.010776863 0.64700001 nan
0.24219581 0.010776863 0.64700001 nan
0.24333023 0.010776863 0.64700001 nan
0.24559817 0.010826834 0.65000004 nan
0.24673784 0.010826834 0.65000004 nan
0.24787749 0.010826834 0.65000004 nan
0.25016648 0.010876804 0.65300006 nan
0.25092655 0.010860147 0.65200001 nan
0.25206971 0.010860147 0.65200001 nan
0.2532129 0.010860147 0.65200001 nan
0.25357583 0.010826834 0.65000004 nan
0.25549924 0.010860147 0.65200001 nan
0.2566424 0.010860147 0.65200001 nan
0.25699484 0.010826834 0.65000004 nan
0.25773737 0.010810177 0.64900005 nan
0.25887528 0.010810177 0.64900005 nan
0.26001319 0.010810177 0.64900005 nan
0.26074871 0.01079352 0.648 nan
0.26188487 0.01079352 0.648 nan
0.26261514 0.010776863 0.64700001 nan
0.27779111 0.01079352 0.648 -1.7014118e+38
0.27849683 0.010776863 0.64700001 -1.7014118e+38
0.27963123 0.010776863 0.64700001 -1.7014118e+38
0.29369736 0.01079352 0.648 -1.8879193e+38
0.29483351 0.01079352 0.648 -1.941297e+38
0.29551294 0.010776863 0.64700001 -1.9678848e+38
0.29618883 0.010760207 0.64600003 -1.9678848e+38
0.2973215 0.010760207 0.64600003 -1.9678848e+38
0.29753014 0.010726893 0.64400005 -2.0079182e+38
0.29819554 0.010710237 0.64300001 -1.9148716e+38
0.29932293 0.010710237 0.64300001 -1.794772e+38
0.30045033 0.010710237 0.64300001 -1.8079578e+38
0.30157772 0.010710237 0.64300001 -1.9147114e+38
0.30223435 0.01069358 0.64200002 -2.5550834e+38
0.3038325 0.010710237 0.64300001 nan
0.30495989 0.010710237 0.64300001 nan
0.30608729 0.010710237 0.64300001 nan
0.30721468 0.010710237 0.64300001 nan
0.30834207 0.010710237 0.64300001 -1.8476269e+38
0.30995077 0.010726893 0.64400005 -1.7014118e+38
0.31107992 0.010726893 0.64400005 -1.7014118e+38
0.31220904 0.010726893 0.64400005 -1.8746855e+38
0.31285164 0.010710237 0.64300001 -1.9814407e+38
0.31397903 0.010710237 0.64300001 -2.0345549e+38
0.31461638 0.01069358 0.64200002 -1.9812292e+38
0.31574202 0.01069358 0.64200002 -1.8615447e+38
0.31686765 0.01069358 0.64200002 -1.8882335e+38
0.31799328 0.01069358 0.64200002 -1.8880806e+38
0.31911895 0.01069358 0.64200002 -1.8747362e+38
0.32024458 0.01069358 0.64200002 -1.8614421e+38
0.32137021 0.01069358 0.64200002 -1.8214608e+38
0.32249585 0.01069358 0.64200002 -1.8478865e+38
0.32412559 0.010710237 0.64300001 -1.9146603e+38
0.32525298 0.010710237 0.64300001 -1.941144e+38
0.32688797 0.010726893 0.64400005 -1.941144e+38
0.32750776 0.010710237 0.64300001 -1.8613918e+38
0.32863516 0.010710237 0.64300001 -1.8613918e+38
0.32976255 0.010710237 0.64300001 -1.8614421e+38
0.33088994 0.010710237 0.64300001 -1.8348054e+38
0.33201733 0.010710237 0.64300001 -1.8347551e+38
-0.38364598 0.01264767 0.68700004 -2.0478993e+38
-0.34721172 0.01213219 0.65900004 nan
-0.34553117 0.01211378 0.65800005 nan
-0.34437746 0.01211378 0.65800005 nan
-0.34322375 0.01211378 0.65800005 nan
-0.3415502 0.01209537 0.65700001 nan
-0.34039828 0.01209537 0.65700001 nan
-0.33924633 0.01209537 0.65700001 nan
-0.33809438 0.01209537 0.65700001 nan
-0.33694243 0.01209537 0.65700001 nan
-0.33579051 0.01209537 0.65700001 nan
-0.33463857 0.01209537 0.65700001 nan
-0.33348662 0.01209537 0.65700001 nan
-0.3323347 0.01209537 0.65700001 nan
-0.33118275 0.01209537 0.65700001 nan
-0.3300308 0.01209537 0.65700001 nan
-0.32887888 0.01209537 0.65700001 nan
-0.32772693 0.01209537 0.65700001 nan
-0.32707205 0.01211378 0.65800005 nan
-0.32591838 0.01211378 0.65800005 nan
-0.32525823 0.01213219 0.65900004 nan
-0.32410279 0.01213219 0.65900004 nan
-0.32392746 0.01216901 0.66100001 nan
-0.32276851 0.01216901 0.66100001 nan
-0.32160956 0.01216901 0.66100001 nan
-0.3209354 0.012187419 0.66200006 nan
-0.31977469 0.012187419 0.66200006 nan
-0.31909525 0.01220583 0.66300005 nan
-0.31793281 0.01220583 0.66300005 -2.7981077e+38
-0.31677034 0.01220583 0.66300005 -2.384379e+38
-0.31560788 0.01220583 0.66300005 -2.182912e+38
-0.31375548 0.01222424 0.66400003 -1.7014175e+38
-0.31259128 0.01222424 0.66400003 -1.7014159e+38
-0.31236508 0.01226106 0.66600001 -1.7014118e+38
-0.31119737 0.01226106 0.66600001 -1.7014118e+38
-0.31002966 0.01226106 0.66600001 -1.7279964e+38
-0.3093257 0.01227947 0.66700006 -1.8078022e+38
-0.30815622 0.01227947 0.66700006 -1.8078026e+38
-0.30698675 0.01227947 0.66700006 -1.8477839e+38
-0.30581728 0.01227947 0.66700006 -1.8878686e+38
-0.3046478 0.01227947 0.66700006 -1.901213e+38
-0.30347833 0.01227947 0.66700006 -1.9012134e+38
-0.30276209 0.01229788 0.66800004 -1.9145581e+38
-0.30159086 0.01229788 0.66800004 -1.8614421e+38
-0.30131909 0.0123347 0.67000002 -1.8614421e+38
-0.30014437 0.0123347 0.67000002 -1.8215115e+38
-0.29896963 0.0123347 0.67000002 -1.8081671e+38
-0.29779491 0.0123347 0.67000002 -1.8745246e+38
-0.29662016 0.0123347 0.67000002 -1.8745246e+38
-0.11875502 0.01181922 0.64200002 nan
-0.11762938 0.01181922 0.64200002 -2.701307e+38
-0.11650374 0.01181922 0.64200002 -2.6588714e+38
-0.1153781 0.01181922 0.64200002 -2.2463953e+38
-0.11425246 0.01181922 0.64200002 -1.8879193e+38
-0.11312682 0.01181922 0.64200002 -2.0347078e+38
-0.11182673 0.01180081 0.64100003 -2.0346056e+38
-0.11070284 0.01180081 0.64100003 -2.0079689e+38
-0.10957895 0.01180081 0.64100003 -1.9946239e+38
-0.10845506 0.01180081 0.64100003 -1.9412463e+38
-0.10733118 0.01180081 0.64100003 -1.9946239e+38
-0.10620729 0.01180081 0.64100003 -2.0080204e+38
-0.10508341 0.01180081 0.64100003 -2.0877212e+38
-0.10395952 0.01180081 0.64100003 -2.0877212e+38
-0.10299606 0.01181922 0.64200002 -2.1144098e+38
-0.10171174 0.01180081 0.64100003 -2.0743767e+38
-0.10058785 0.01180081 0.64100003 -2.0738561e+38
-0.099463969 0.01180081 0.64100003 -1.7014118e+38
-0.098340079 0.01180081 0.64100003 -1.7014118e+38
-0.097064532 0.0117824 0.64000005 -1.7946136e+38
-0.0959424 0.0117824 0.64000005 nan
-0.094820268 0.0117824 0.64000005 nan
-0.093698129 0.0117824 0.64000005 nan
-0.092575997 0.0117824 0.64000005 nan
-0.091168076 0.01174558 0.63800001 nan
-0.08595629 0.01227947 0.66700006 nan
-0.084786817 0.01227947 0.66700006 nan
-0.083617344 0.01227947 0.66700006 nan
-0.082571477 0.01229788 0.66800004 nan
-0.081278399 0.01227947 0.66700006 nan
-0.080108926 0.01227947 0.66700006 nan
-0.078939453 0.01227947 0.66700006 nan
-0.07776998 0.01227947 0.66700006 nan
-0.076485656 0.01226106 0.66600001 nan
-0.075317942 0.01226106 0.66600001 nan
-0.07415022 0.01226106 0.66600001 nan
-0.072982498 0.01226106 0.66600001 nan
-0.071814783 0.01226106 0.66600001 nan
-0.070647061 0.01226106 0.66600001 nan
-0.06490577 0.01227947 0.66700006 nan
-0.062566824 0.01227947 0.66700006 nan
-0.036672719 0.01222424 0.66400003 -2.0337188e+38
-0.035455029 0.01220583 0.66300005 nan
-0.034240846 0.012187419 0.66200006 nan
-0.030758727 0.012187419 0.66200006 -3.288355e+38
-0.02959802 0.012187419 0.66200006 -2.6471429e+38
-0.028437313 0.012187419 0.66200006 -2.5003546e+38
-0.027317809 0.01220583 0.66300005 -2.3284413e+38
-0.026155351 0.01220583 0.66300005 -2.4085077e+38
0.035401553 0.012187419 0.66200006 nan
0.037722968 0.012187419 0.66200006 nan
0.038883675 0.012187419 0.66200006 nan
0.083697118 0.01148784 0.62400001 nan
0.084791198 0.01148784 0.62400001 nan
0.086022913 0.01150625 0.625 nan
0.087118752 0.01150625 0.625 nan
0.088214584 0.01150625 0.625 nan
0.089596212 0.01154307 0.62700003 nan
0.090695553 0.01154307 0.62700003 nan
0.09194129 0.01156148 0.62800002 nan
0.093042389 0.01156148 0.62800002 nan
0.09414348 0.01156148 0.62800002 nan
0.0955479 0.0115983 0.63000005 nan
0.0966525 0.0115983 0.63000005 nan
0.097601928 0.01157989 0.62900001 nan
0.098704778 0.01157989 0.62900001 nan
0.099648945 0.01156148 0.62800002 nan
0.10075004 0.01156148 0.62800002 nan
0.10185114 0.01156148 0.62800002 nan
0.10295223 0.01156148 0.62800002 nan
0.10405332 0.01156148 0.62800002 nan
0.10515441 0.01156148 0.62800002 nan
0.10625551 0.01156148 0.62800002 nan
0.1073566 0.01156148 0.62800002 nan
0.10845769 0.01156148 0.62800002 nan
0.10955878 0.01156148 0.62800002 nan
0.11065988 0.01156148 0.62800002 nan
0.11176097 0.01156148 0.62800002 nan
0.11286207 0.01156148 0.62800002 nan
0.11396316 0.01156148 0.62800002 nan
0.11524747 0.01157989 0.62900001 nan
0.11616535 0.01156148 0.62800002 nan
0.11726644 0.01156148 0.62800002 nan
0.11855602 0.01157989 0.62900001 nan
0.11965887 0.01157989 0.62900001 nan
0.12076171 0.01157989 0.62900001 nan
0.12186456 0.01157989 0.62900001 nan
0.1231629 0.0115983 0.63000005 nan
0.1242675 0.0115983 0.63000005 nan
0.1253721 0.0115983 0.63000005 nan
0.12647671 0.0115983 0.63000005 nan
0.12778381 0.01161671 0.63100004 nan
0.12889016 0.01161671 0.63100004 nan
0.12999652 0.01161671 0.63100004 nan
0.13110287 0.01161671 0.63100004 nan
0.1319997 0.0115983 0.63000005 nan
0.13310429 0.0115983 0.63000005 nan
0.13442193 0.01161671 0.63100004 nan
0.13552828 0.01161671 0.63100004 nan
0.13663463 0.01161671 0.63100004 nan
0.13774098 0.01161671 0.63100004 nan
0.13884734 0.01161671 0.63100004 nan
0.1399537 0.01161671 0.63100004 nan
0.14106005 0.01161671 0.63100004 nan
0.14216641 0.01161671 0.63100004 nan
0.14349981 0.01163512 0.63200003 nan
0.14460792 0.01163512 0.63200003 nan
0.14571603 0.01163512 0.63200003 nan
0.14682414 0.01163512 0.63200003 nan
0.14793225 0.01163512 0.63200003 nan
0.1506236 0.01167194 0.634 nan
0.15197454 0.01169035 0.63500005 nan
0.15308791 0.01169035 0.63500005 nan
0.15395844 0.01167194 0.634 nan
0.15531465 0.01169035 0.63500005 nan
0.15642801 0.01169035 0.63500005 nan
0.15754138 0.01169035 0.63500005 nan
0.15865475 0.01169035 0.63500005 nan
0.15976812 0.01169035 0.63500005 nan
0.16088149 0.01169035 0.63500005 nan
0.16224995 0.01170876 0.63600004 nan
0.16336508 0.01170876 0.63600004 nan
0.16448019 0.01170876 0.63600004 nan
0.16611606 0.01174558 0.63800001 nan
0.16723469 0.01174558 0.63800001 nan
0.16888106 0.0117824 0.64000005 nan
0.17000321 0.0117824 0.64000005 nan
0.17112534 0.0117824 0.64000005 nan
0.1725166 0.01180081 0.64100003 nan
0.17364049 0.01180081 0.64100003 nan
0.17476438 0.01180081 0.64100003 nan
0.17616266 0.01181922 0.64200002 nan
0.17701215 0.01180081 0.64100003 nan
0.17841394 0.01181922 0.64200002 nan
0.17953958 0.01181922 0.64200002 nan
0.18066522 0.01181922 0.64200002 nan
0.18179086 0.01181922 0.64200002 nan
0.18263158 0.01180081 0.64100003 nan
0.18375547 0.01180081 0.64100003 nan
0.18487936 0.01180081 0.64100003 nan
0.18600324 0.01180081 0.64100003 nan
0.18712713 0.01180081 0.64100003 nan
0.18825102 0.01180081 0.64100003 nan
0.18937491 0.01180081 0.64100003 nan
0.19079597 0.01181922 0.64200002 nan
0.1925195 0.01185604 0.64400005 nan
0.19364865 0.01185604 0.64400005 nan
0.19447535 0.01183763 0.64300001 nan
0.19590695 0.01185604 0.64400005 nan
0.19703609 0.01185604 0.64400005 nan
0.19816524 0.01185604 0.64400005 nan
0.19929439 0.01185604 0.64400005 nan
0.20104596 0.01189286 0.64600003 nan
0.20155267 0.01185604 0.64400005 nan
0.20268182 0.01185604 0.64400005 nan
0.20381097 0.01185604 0.64400005 nan
0.20462188 0.01183763 0.64300001 nan
0.20574929 0.01183763 0.64300001 nan
0.20687668 0.01183763 0.64300001 nan
0.20800407 0.01183763 0.64300001 nan
0.20880622 0.01181922 0.64200002 nan
0.20993187 0.01181922 0.64200002 nan
0.211715 0.01185604 0.64400005 nan
0.21284415 0.01185604 0.64400005 nan
0.2139733 0.01185604 0.64400005 nan
0.21510243 0.01185604 0.64400005 nan
0.21690311 0.01189286 0.64600003 nan
0.21803577 0.01189286 0.64600003 nan
0.21916842 0.01189286 0.64600003 nan
0.22030108 0.01189286 0.64600003 nan
0.22143373 0.01189286 0.64600003 nan
0.22291091 0.01191127 0.64700001 nan
0.22404532 0.01191127 0.64700001 nan
0.22517972 0.01191127 0.64700001 nan
0.22631413 0.01191127 0.64700001 nan
0.22709699 0.01189286 0.64600003 nan
0.22858295 0.01191127 0.64700001 nan
0.22971734 0.01191127 0.64700001 nan
0.23085175 0.01191127 0.64700001 nan
0.2316276 0.01189286 0.64600003 nan
0.23312058 0.01191127 0.64700001 nan
0.23461704 0.01192968 0.648 nan
0.23538938 0.01191127 0.64700001 nan
0.23652379 0.01191127 0.64700001 nan
0.23765819 0.01191127 0.64700001 nan
0.2387926 0.01191127 0.64700001 nan
0.23955618 0.01189286 0.64600003 nan
0.24106142 0.01191127 0.64700001 nan
0.24219581 0.01191127 0.64700001 nan
0.24333023 0.01191127 0.64700001 nan
0.24446464 0.01191127 0.64700001 nan
0.24597864 0.01192968 0.648 nan
0.24711479 0.01192968 0.648 nan
0.25357583 0.011966499 0.65000004 nan
0.2547155 0.011966499 0.65000004 nan
0.25546154 0.01194809 0.64900005 nan
0.25659946 0.01194809 0.64900005 nan
0.25734025 0.01192968 0.648 nan
0.25847641 0.01192968 0.648 nan
0.25921193 0.01191127 0.64700001 nan
0.26034632 0.01191127 0.64700001 -3.1156134e+38
0.26148075 0.01191127 0.64700001 -3.1945351e+38
0.26220924 0.01189286 0.64600003 -2.273823e+38
0.27693373 0.01189286 0.64600003 -1.7014118e+38
0.2780664 0.01189286 0.64600003 -1.7014118e+38
0.27919903 0.01189286 0.64600003 -1.7014118e+38
0.2803317 0.01189286 0.64600003 -1.7014118e+38
0.28059295 0.01185604 0.64400005 -1.7014133e+38
0.29301357 0.01185604 0.64400005 -2.0474815e+38
0.29505619 0.01189286 0.64600003 -1.9678848e+38
0.29527184 0.01185604 0.64400005 -1.9678848e+38
0.29640099 0.01185604 0.64400005 -1.9545911e+38
0.29706815 0.01183763 0.64300001 -2.0079689e+38
0.29819554 0.01183763 0.64300001 -1.9548529e+38
0.29932293 0.01183763 0.64300001 -1.9815936e+38
0.29998305 0.01181922 0.64200002 -1.8348559e+38
0.30110869 0.01181922 0.64200002 -1.7014118e+38
0.30223435 0.01181922 0.64200002 -1.7014118e+38
0.3038325 0.01183763 0.64300001 nan
0.30448562 0.01181922 0.64200002 nan
0.30561125 0.01181922 0.64200002 nan
0.30721468 0.01183763 0.64300001 nan
0.30834207 0.01183763 0.64300001 -1.7147074e+38
0.30946946 0.01183763 0.64300001 -1.7014118e+38
0.31059685 0.01183763 0.64300001 -1.7681878e+38
0.31172425 0.01183763 0.64300001 -1.9680959e+38
0.31285164 0.01183763 0.64300001 -1.9680959e+38
0.31397903 0.01183763 0.64300001 -1.9548529e+38
0.31461638 0.01181922 0.64200002 -1.9282162e+38
0.31574202 0.01181922 0.64200002 -1.8615447e+38
0.31686765 0.01181922 0.64200002 -1.8882335e+38
0.31799328 0.01181922 0.64200002 -1.9015272e+38
0.31911895 0.01181922 0.64200002 -1.8881828e+38
0.32024458 0.01181922 0.64200002 -1.941144e+38
0.32137021 0.01181922 0.64200002 -1.941144e+38
0.32249585 0.01181922 0.64200002 -1.9411947e+38
0.32412559 0.01183763 0.64300001 -1.9545911e+38
0.32525298 0.01183763 0.64300001 -1.901425e+38
0.32638037 0.01183763 0.64300001 -1.8880806e+38
0.32750776 0.01183763 0.64300001 -1.8881828e+38
0.32863516 0.01183763 0.64300001 -1.8881828e+38
0.32976255 0.01183763 0.64300001 -1.9015272e+38
0.33088994 0.01183763 0.64300001 -1.8881828e+38
0.33201733 0.01183763 0.64300001 -1.9015272e+38
-0.38316995 0.013791719 0.68400002 -2.1672166e+38
-0.38308755 0.013832047 0.68600005 -2.2605756e+38
-0.38188475 0.013832047 0.68600005 -2.1276519e+38
-0.34783855 0.013267473 0.65800005 nan
-0.34668484 0.013267473 0.65800005 nan
-0.34553117 0.013267473 0.65800005 nan
-0.34437746 0.013267473 0.65800005 nan
-0.34270215 0.01324731 0.65700001 nan
-0.3415502 0.01324731 0.65700001 nan
-0.33936206 0.013206983 0.65500003 nan
-0.33821362 0.013206983 0.65500003 nan
-0.33706519 0.013206983 0.65500003 nan
-0.33694243 0.01324731 0.65700001 nan
-0.33579051 0.01324731 0.65700001 nan
-0.33463857 0.01324731 0.65700001 nan
-0.33348662 0.01324731 0.65700001 nan
-0.3323347 0.01324731 0.65700001 nan
-0.33118275 0.01324731 0.65700001 nan
-0.3300308 0.01324731 0.65700001 nan
-0.32937944 0.013267473 0.65800005 nan
-0.32822576 0.013267473 0.65800005 nan
-0.32707205 0.013267473 0.65800005 nan
-0.32641369 0.013287636 0.65900004 nan
-0.32525823 0.013287636 0.65900004 nan
-0.32410279 0.013287636 0.65900004 nan
-0.32392746 0.013327964 0.66100001 nan
-0.32276851 0.013327964 0.66100001 -3.2365018e+38
-0.32209611 0.013348127 0.66200006 -1.7714356e+38
-0.3209354 0.013348127 0.66200006 -1.7045051e+38
-0.31977469 0.013348127 0.66200006 -1.7030326e+38
-0.31909525 0.01336829 0.66300005 -1.7016773e+38
-0.31793281 0.01336829 0.66300005 -1.7014118e+38
-0.31677034 0.01336829 0.66300005 -1.7014118e+38
-0.31491971 0.013388453 0.66400003 -1.7014118e+38
-0.31375548 0.013388453 0.66400003 -1.7014118e+38
-0.31353283 0.01342878 0.66600001 -1.7015157e+38
-0.31236508 0.01342878 0.66600001 -1.7813253e+38
-0.31166464 0.013448943 0.66700006 -1.7813253e+38
-0.31002966 0.01342878 0.66600001 -1.8215115e+38
-0.3093257 0.013448943 0.66700006 -1.8348559e+38
-0.30815622 0.013448943 0.66700006 -1.9146603e+38
-0.30698675 0.013448943 0.66700006 -1.9013157e+38
-0.30581728 0.013448943 0.66700006 -1.9146603e+38
-0.3046478 0.013448943 0.66700006 -1.9146603e+38
-0.30347833 0.013448943 0.66700006 -1.9411947e+38
-0.30230886 0.013448943 0.66700006 -1.9411947e+38
-0.30159086 0.013469107 0.66800004 -1.9148716e+38
-0.30041963 0.013469107 0.66800004 -1.8614421e+38
-0.2992484 0.013469107 0.66800004 -1.9012134e+38
-0.11762938 0.012944859 0.64200002 -1.8343346e+38
-0.11650374 0.012944859 0.64200002 -1.7014118e+38
-0.1153781 0.012944859 0.64200002 -1.848305e+38
-0.1140745 0.012924696 0.64100003 -2.0613463e+38
-0.11295061 0.012924696 0.64100003 -2.0480019e+38
-0.11182673 0.012924696 0.64100003 -2.0346056e+38
-0.11070284 0.012924696 0.64100003 -2.0346056e+38
-0.10957895 0.012924696 0.64100003 -2.0079689e+38
-0.10845506 0.012924696 0.64100003 -2.0079689e+38
-0.10733118 0.012924696 0.64100003 -2.0079182e+38
-0.10620729 0.012924696 0.64100003 -2.0345549e+38
-0.10508341 0.012924696 0.64100003 -2.1008591e+38
-0.10395952 0.012924696 0.64100003 -2.1275479e+38
-0.10283563 0.012924696 0.64100003 -2.1144098e+38
-0.10171174 0.012924696 0.64100003 -2.1144098e+38
-0.10058785 0.012924696 0.64100003 -2.114356e+38
-0.099463969 0.012924696 0.64100003 -2.1277004e+38
-0.098340079 0.012924696 0.64100003 -2.0074482e+38
-0.097216196 0.012924696 0.64100003 -1.7014118e+38
-0.096092306 0.012924696 0.64100003 -2.2729799e+38
-0.094820268 0.012904533 0.64000005 -2.419195e+38
-0.093698129 0.012904533 0.64000005 -3.391816e+38
-0.092575997 0.012904533 0.64000005 nan
-0.091168076 0.012864207 0.63800001 nan
-0.083598934 0.012904533 0.64000005 nan
-0.082571477 0.013469107 0.66800004 nan
-0.081278399 0.013448943 0.66700006 nan
-0.080108926 0.013448943 0.66700006 nan
-0.078939453 0.013448943 0.66700006 nan
-0.077653378 0.01342878 0.66600001 nan
-0.076485656 0.01342878 0.66600001 nan
-0.075317942 0.01342878 0.66600001 nan
-0.07415022 0.01342878 0.66600001 nan
-0.072982498 0.01342878 0.66600001 nan
-0.071599118 0.013388453 0.66400003 nan
-0.070434906 0.013388453 0.66400003 nan
-0.069479339 0.01342878 0.66600001 nan
-0.06810648 0.013388453 0.66400003 nan
-0.066942267 0.013388453 0.66400003 nan
-0.06597618 0.01342878 0.66600001 nan
-0.064808458 0.01342878 0.66600001 nan
-0.03656226 0.013348127 0.66200006 -1.7014118e+38
-0.035401553 0.013348127 0.66200006 nan
-0.028437313 0.013348127 0.66200006 -2.474401e+38
-0.027276607 0.013348127 0.66200006 -2.3684226e+38
-0.026155351 0.01336829 0.66300005 -2.3951114e+38
-0.024992891 0.01336829 0.66300005 -2.4614183e+38
0.036507029 0.013327964 0.66100001 nan
0.037665982 0.013327964 0.66100001 nan
0.069585413 0.012602083 0.625 nan
0.070681252 0.012602083 0.625 nan
0.071777083 0.012602083 0.625 nan
0.072872914 0.012602083 0.625 nan
0.073850401 0.01258192 0.62400001 nan
0.075064585 0.012602083 0.625 nan
0.076160416 0.012602083 0.625 nan
0.077503473 0.01264241 0.62700003 nan
0.078602813 0.01264241 0.62700003 nan
0.079702146 0.01264241 0.62700003 nan
0.080543749 0.012602083 0.625 nan
0.08163958 0.012602083 0.625 nan
0.082735419 0.012602083 0.625 nan
0.083831251 0.012602083 0.625 nan
0.084927082 0.012602083 0.625 nan
0.085885279 0.01258192 0.62400001 nan
0.087118752 0.012602083 0.625 nan
0.088214584 0.012602083 0.625 nan
0.089310415 0.012602083 0.625 nan
0.090406246 0.012602083 0.625 nan
0.09194129 0.012662574 0.62800002 nan
0.092894226 0.01264241 0.62700003 nan
0.093993567 0.01264241 0.62700003 nan
0.095092908 0.01264241 0.62700003 nan
0.097446762 0.012662574 0.62800002 nan
0.098547854 0.012662574 0.62800002 nan
0.099648945 0.012662574 0.62800002 nan
0.10058961 0.01264241 0.62700003 nan
0.10168895 0.01264241 0.62700003 nan
0.10295223 0.012662574 0.62800002 nan
0.10388763 0.01264241 0.62700003 nan
0.10498697 0.01264241 0.62700003 nan
0.10608631 0.01264241 0.62700003 nan
0.10718565 0.01264241 0.62700003 nan
0.10828499 0.01264241 0.62700003 nan
0.10938433 0.01264241 0.62700003 nan
0.11048367 0.01264241 0.62700003 nan
0.11158301 0.01264241 0.62700003 nan
0.11286207 0.012662574 0.62800002 nan
0.11396316 0.012662574 0.62800002 nan
0.11506426 0.012662574 0.62800002 nan
0.11616535 0.012662574 0.62800002 nan
0.11726644 0.012662574 0.62800002 nan
0.11836753 0.012662574 0.62800002 nan
0.11946863 0.012662574 0.62800002 nan
0.12056972 0.012662574 0.62800002 nan
0.12186456 0.012682737 0.62900001 nan
0.1229674 0.012682737 0.62900001 nan
0.12407025 0.012682737 0.62900001 nan
0.1253721 0.0127029 0.63000005 nan
0.12647671 0.0127029 0.63000005 nan
0.12778381 0.012723063 0.63100004 nan
0.12889016 0.012723063 0.63100004 nan
0.12999652 0.012723063 0.63100004 nan
0.13110287 0.012723063 0.63100004 nan
0.13220923 0.012723063 0.63100004 nan
0.13310429 0.0127029 0.63000005 nan
0.1342089 0.0127029 0.63000005 nan
0.1353135 0.0127029 0.63000005 nan
0.1364181 0.0127029 0.63000005 nan
0.1375227 0.0127029 0.63000005 -3.3820326e+38
0.13862731 0.0127029 0.63000005 -3.2352439e+38
0.1399537 0.012723063 0.63100004 -3.0088052e+38
0.14106005 0.012723063 0.63100004 -2.8886536e+38
0.14216641 0.012723063 0.63100004 -2.6223937e+38
0.14349981 0.012743226 0.63200003 -2.3154204e+38
0.14460792 0.012743226 0.63200003 -1.943081e+38
0.14571603 0.012743226 0.63200003 -1.7829483e+38
0.14682414 0.012743226 0.63200003 -1.7029849e+38
0.14793225 0.012743226 0.63200003 -1.7026201e+38
0.1506236 0.012783553 0.634 -1.7018382e+38
0.15173522 0.012783553 0.634 -1.7021495e+38
0.15308791 0.012803717 0.63500005 -1.8358542e+38
0.15395844 0.012783553 0.634 -1.9688796e+38
0.15531465 0.012803717 0.63500005 -1.982224e+38
0.15642801 0.012803717 0.63500005 -2.1956303e+38
0.15754138 0.012803717 0.63500005 -2.3157299e+38
0.15865475 0.012803717 0.63500005 -2.475286e+38
0.15976812 0.012803717 0.63500005 -2.6487632e+38
0.16088149 0.012803717 0.63500005 -2.7822124e+38
0.16224995 0.01282388 0.63600004 -2.8756232e+38
0.16336508 0.01282388 0.63600004 -2.9157586e+38
0.16448019 0.01282388 0.63600004 -2.9024142e+38
0.16585569 0.012844043 0.63700002 nan
0.16723469 0.012864207 0.63800001 nan
0.16835332 0.012864207 0.63800001 nan
0.17000321 0.012904533 0.64000005 nan
0.17112534 0.012904533 0.64000005 nan
0.17224747 0.012904533 0.64000005 nan
0.17364049 0.012924696 0.64100003 nan
0.17476438 0.012924696 0.64100003 nan
0.17588826 0.012924696 0.64100003 nan
0.17701215 0.012924696 0.64100003 nan
0.17813604 0.012924696 0.64100003 nan
0.17953958 0.012944859 0.64200002 nan
0.18066522 0.012944859 0.64200002 nan
0.18150769 0.012924696 0.64100003 nan
0.18263158 0.012924696 0.64100003 nan
0.18375547 0.012924696 0.64100003 nan
0.18487936 0.012924696 0.64100003 nan
0.18600324 0.012924696 0.64100003 nan
0.18712713 0.012924696 0.64100003 nan
0.18825102 0.012924696 0.64100003 nan
0.18937491 0.012924696 0.64100003 nan
0.19109316 0.012965024 0.64300001 nan
0.19222057 0.012965024 0.64300001 nan
0.19334796 0.012965024 0.64300001 nan
0.19447535 0.012965024 0.64300001 nan
0.19590695 0.012985187 0.64400005 nan
0.19703609 0.012985187 0.64400005 nan
0.19816524 0.012985187 0.64400005 nan
0.19929439 0.012985187 0.64400005 nan
0.20104596 0.013025513 0.64600003 nan
0.20155267 0.012985187 0.64400005 nan
0.20268182 0.012985187 0.64400005 nan
0.20381097 0.012985187 0.64400005 nan
0.20494013 0.012985187 0.64400005 nan
0.20606926 0.012985187 0.64400005 nan
0.20719841 0.012985187 0.64400005 nan
0.20832756 0.012985187 0.64400005 nan
0.20945671 0.012985187 0.64400005 nan
0.21058585 0.012985187 0.64400005 nan
0.211715 0.012985187 0.64400005 nan
0.21284415 0.012985187 0.64400005 nan
0.2139733 0.012985187 0.64400005 nan
0.21510243 0.012985187 0.64400005 nan
0.21690311 0.013025513 0.64600003 nan
0.21803577 0.013025513 0.64600003 nan
0.21916842 0.013025513 0.64600003 nan
0.22030108 0.013025513 0.64600003 nan
0.22143373 0.013025513 0.64600003 nan
0.22256638 0.013025513 0.64600003 nan
0.22369903 0.013025513 0.64600003 nan
0.22483169 0.013025513 0.64600003 nan
0.22596434 0.013025513 0.64600003 nan
0.22709699 0.013025513 0.64600003 nan
0.22858295 0.013045677 0.64700001 nan
0.22971734 0.013045677 0.64700001 nan
0.23085175 0.013045677 0.64700001 nan
0.2316276 0.013025513 0.64600003 nan
0.23312058 0.013045677 0.64700001 nan
0.23425497 0.013045677 0.64700001 nan
0.23538938 0.013045677 0.64700001 nan
0.23652379 0.013045677 0.64700001 nan
0.23765819 0.013045677 0.64700001 nan
0.2387926 0.013045677 0.64700001 nan
0.23955618 0.013025513 0.64600003 nan
0.24106142 0.013045677 0.64700001 nan
0.24219581 0.013045677 0.64700001 nan
0.24333023 0.013045677 0.64700001 nan
0.24446464 0.013045677 0.64700001 nan
0.24597864 0.01306584 0.648 nan
0.24711479 0.01306584 0.648 -3.235824e+38
0.25318572 0.013086003 0.64900005 -1.7014143e+38
0.25432363 0.013086003 0.64900005 -1.7014145e+38
0.25506791 0.01306584 0.648 -1.7014126e+38
0.25620407 0.01306584 0.648 -1.7014126e+38
0.25694311 0.013045677 0.64700001 -1.7014118e+38
0.2580775 0.013045677 0.64700001 -1.7014118e+38
0.25921193 0.013045677 0.64700001 -1.7014118e+38
0.25994393 0.013025513 0.64600003 -1.7014118e+38
0.2610766 0.013025513 0.64600003 -1.7014118e+38
0.26220924 0.013025513 0.64600003 -1.7014118e+38
0.27693373 0.013025513 0.64600003 -2.0082825e+38
0.2780664 0.013025513 0.64600003 -1.8881828e+38
0.27833465 0.012985187 0.64400005 -1.8881828e+38
0.27902985 0.012965024 0.64300001 -1.8881828e+38
0.28015724 0.012965024 0.64300001 -1.9148716e+38
0.28084719 0.012944859 0.64200002 -1.8881828e+38
0.28197283 0.012944859 0.64200002 -1.9281655e+38
0.28309846 0.012944859 0.64200002 -1.9014765e+38
0.28378138 0.012924696 0.64100003 -1.9945223e+38
0.28490525 0.012924696 0.64100003 -2.0079186e+38
0.28985229 0.012944859 0.64200002 -1.9945223e+38
0.29097793 0.012944859 0.64200002 -1.9678848e+38
0.29210359 0.012944859 0.64200002 -1.9678848e+38
0.29594076 0.012965024 0.64300001 -1.8748891e+38
0.29660612 0.012944859 0.64200002 -1.9282667e+38
0.29819554 0.012965024 0.64300001 -1.9945223e+38
0.29885742 0.012944859 0.64200002 -2.0478997e+38
0.29998305 0.012944859 0.64200002 -1.9681466e+38
0.30110869 0.012944859 0.64200002 -1.7014118e+38
0.30223435 0.012944859 0.64200002 -1.7014118e+38
0.30335999 0.012944859 0.64200002 nan
0.30448562 0.012944859 0.64200002 nan
0.30561125 0.012944859 0.64200002 nan
0.30673689 0.012944859 0.64200002 nan
0.30786255 0.012944859 0.64200002 -2.4740865e+38
0.30946946 0.012965024 0.64300001 -1.7014183e+38
0.31059685 0.012965024 0.64300001 -1.8614508e+38
0.31172425 0.012965024 0.64300001 -1.9679941e+38
0.31285164 0.012965024 0.64300001 -1.9679941e+38
0.31349075 0.012944859 0.64200002 -1.9681466e+38
0.31461638 0.012944859 0.64200002 -1.9548022e+38
0.31525022 0.012924696 0.64100003 -1.8881828e+38
0.31686765 0.012944859 0.64200002 -1.8881828e+38
0.31799328 0.012944859 0.64200002 -1.9015272e+38
0.31862187 0.012924696 0.64100003 -1.9015272e+38
0.32024458 0.012944859 0.64200002 -1.8881828e+38
0.32137021 0.012944859 0.64200002 -1.9015272e+38
0.32249585 0.012944859 0.64200002 -1.9015272e+38
0.32412559 0.012965024 0.64300001 -1.9282162e+38
0.32525298 0.012965024 0.64300001 -1.901425e+38
0.32638037 0.012965024 0.64300001 -1.9281659e+38
0.32750776 0.012965024 0.64300001 -1.9945223e+38
0.32863516 0.012965024 0.64300001 -1.9945223e+38
0.32976255 0.012965024 0.64300001 -1.9945223e+38
0.33088994 0.012965024 0.64300001 -1.9945223e+38
0.33201733 0.012965024 0.64300001 -2.0345549e+38
-0.38260975 0.014969083 0.68300003 -2.4872193e+38
-0.38197067 0.014991 0.68400002 -2.5939746e+38
-0.3794792 0.015034833 0.68600005 -3.1144603e+38
-0.34899223 0.014421167 0.65800005 nan
-0.34783855 0.014421167 0.65800005 nan
-0.34668484 0.014421167 0.65800005 nan
-0.34500602 0.01439925 0.65700001 nan
-0.3438541 0.01439925 0.65700001 nan
-0.34270215 0.01439925 0.65700001 nan
-0.34051049 0.014355416 0.65500003 nan
-0.33936206 0.014355416 0.65500003 nan
-0.33821362 0.014355416 0.65500003 nan
-0.33706519 0.014355416 0.65500003 nan
-0.33591676 0.014355416 0.65500003 nan
-0.33579051 0.01439925 0.65700001 nan
-0.33463857 0.01439925 0.65700001 nan
-0.33348662 0.01439925 0.65700001 nan
-0.3323347 0.01439925 0.65700001 nan
-0.33118275 0.01439925 0.65700001 nan
-0.33053315 0.014421167 0.65800005 nan
-0.32937944 0.014421167 0.65800005 nan
-0.32872456 0.014443084 0.65900004 nan
-0.32756913 0.014443084 0.65900004 nan
-0.32641369 0.014443084 0.65900004 nan
-0.32525823 0.014443084 0.65900004 nan
-0.32410279 0.014443084 0.65900004 nan
-0.32392746 0.014486916 0.66100001 -3.1179568e+38
-0.32325679 0.014508833 0.66200006 -2.4774255e+38
-0.32209611 0.014508833 0.66200006 -1.9696621e+38
-0.3209354 0.014508833 0.66200006 -1.7014169e+38
-0.31977469 0.014508833 0.66200006 -1.7014118e+38
-0.31909525 0.01453075 0.66300005 -1.7014118e+38
-0.31724814 0.014552667 0.66400003 -1.7014118e+38
-0.31608391 0.014552667 0.66400003 -1.701412e+38
-0.31586826 0.0145965 0.66600001 -1.7944594e+38
-0.31470054 0.0145965 0.66600001 -1.8211472e+38
-0.31400359 0.014618416 0.66700006 -1.887869e+38
-0.31283411 0.014618416 0.66700006 -1.8080142e+38
-0.31166464 0.014618416 0.66700006 -1.7946697e+38
-0.31049517 0.014618416 0.66700006 -1.8215115e+38
-0.3093257 0.014618416 0.66700006 -1.8348559e+38
-0.30815622 0.014618416 0.66700006 -1.9012134e+38
-0.30698675 0.014618416 0.66700006 -1.9012134e+38
-0.30581728 0.014618416 0.66700006 -1.9013157e+38
-0.3046478 0.014618416 0.66700006 -1.9013157e+38
-0.30347833 0.014618416 0.66700006 -1.9411947e+38
-0.30230886 0.014618416 0.66700006 -1.9545911e+38
-0.1153781 0.0140705 0.64200002 -1.9817987e+38
-0.1140745 0.014048583 0.64100003 -2.1013797e+38
-0.11295061 0.014048583 0.64100003 -2.0880351e+38
-0.11182673 0.014048583 0.64100003 -2.0746907e+38
-0.11070284 0.014048583 0.64100003 -2.0480019e+38
-0.10957895 0.014048583 0.64100003 -2.0480522e+38
-0.10845506 0.014048583 0.64100003 -2.0613966e+38
-0.10733118 0.014048583 0.64100003 -2.0478993e+38
-0.10620729 0.014048583 0.64100003 -2.07464e+38
-0.10508341 0.014048583 0.64100003 -2.1276519e+38
-0.10395952 0.014048583 0.64100003 -2.1409964e+38
-0.10283563 0.014048583 0.64100003 -2.1410986e+38
-0.10171174 0.014048583 0.64100003 -2.1144098e+38
-0.10058785 0.014048583 0.64100003 -2.1144098e+38
-0.099308796 0.014026667 0.64000005 -2.1144098e+38
-0.098340079 0.014048583 0.64100003 -2.1144098e+38
-0.097064532 0.014026667 0.64000005 -1.9542769e+38
-0.0959424 0.014026667 0.64000005 -1.7014118e+38
-0.094523951 0.013982833 0.63800001 -1.7014118e+38
-0.093405329 0.013982833 0.63800001 -1.900796e+38
-0.092286699 0.013982833 0.63800001 -2.780536e+38
-0.091168076 0.013982833 0.63800001 nan
-0.089908302 0.013960917 0.63700002 nan
-0.08879143 0.013960917 0.63700002 nan
-0.085977331 0.014048583 0.64100003 nan
-0.084853441 0.014048583 0.64100003 nan
-0.083598934 0.014026667 0.64000005 nan
-0.082476802 0.014026667 0.64000005 nan
-0.080357894 0.014048583 0.64100003 nan
-0.079234011 0.014048583 0.64100003 nan
-0.077622697 0.013960917 0.63700002 nan
-0.076505825 0.013960917 0.63700002 nan
-0.075270601 0.013939 0.63600004 nan
-0.076485656 0.0145965 0.66600001 nan
-0.075317942 0.0145965 0.66600001 nan
-0.07415022 0.0145965 0.66600001 nan
-0.072763331 0.014552667 0.66400003 nan
-0.071599118 0.014552667 0.66400003 nan
-0.070434906 0.014552667 0.66400003 nan
-0.069270693 0.014552667 0.66400003 nan
-0.06810648 0.014552667 0.66400003 nan
-0.066942267 0.014552667 0.66400003 nan
-0.064808458 0.0145965 0.66600001 nan
-0.036507029 0.014486916 0.66100001 -1.7014118e+38
-0.035348076 0.014486916 0.66100001 nan
-0.034189124 0.014486916 0.66100001 nan
-0.029553309 0.014486916 0.66100001 -1.9147114e+38
-0.028437313 0.014508833 0.66200006 -2.4084015e+38
-0.027276607 0.014508833 0.66200006 -2.3951114e+38
-0.0261159 0.014508833 0.66200006 -2.3684226e+38
-0.024955193 0.014508833 0.66200006 -2.4613672e+38
0.057715349 0.01374175 0.62700003 nan
0.058627084 0.013697917 0.625 nan
0.059722915 0.013697917 0.625 nan
0.06520208 0.013697917 0.625 nan
0.066297919 0.013697917 0.625 nan
0.067609407 0.01374175 0.62700003 nan
0.068489581 0.013697917 0.625 nan
0.069585413 0.013697917 0.625 nan
0.070681252 0.013697917 0.625 nan
0.071777083 0.013697917 0.625 nan
0.072872914 0.013697917 0.625 nan
0.073850401 0.013676 0.62400001 nan
0.075064585 0.013697917 0.625 nan
0.076160416 0.013697917 0.625 nan
0.077256247 0.013697917 0.625 nan
0.078602813 0.01374175 0.62700003 nan
0.079702146 0.01374175 0.62700003 nan
0.080543749 0.013697917 0.625 nan
0.08163958 0.013697917 0.625 nan
0.082735419 0.013697917 0.625 nan
0.083831251 0.013697917 0.625 nan
0.084927082 0.013697917 0.625 nan
0.086022913 0.013697917 0.625 nan
0.087118752 0.013697917 0.625 nan
0.088214584 0.013697917 0.625 nan
0.089310415 0.013697917 0.625 nan
0.090406246 0.013697917 0.625 nan
0.091794886 0.01374175 0.62700003 nan
0.092894226 0.01374175 0.62700003 nan
0.093993567 0.01374175 0.62700003 nan
0.095092908 0.01374175 0.62700003 nan
0.097291589 0.01374175 0.62700003 nan
0.098390929 0.01374175 0.62700003 nan
0.09949027 0.01374175 0.62700003 nan
0.10058961 0.01374175 0.62700003 nan
0.10168895 0.01374175 0.62700003 nan
0.10278829 0.01374175 0.62700003 nan
0.10388763 0.01374175 0.62700003 nan
0.10498697 0.01374175 0.62700003 nan
0.10608631 0.01374175 0.62700003 nan
0.10718565 0.01374175 0.62700003 nan
0.10828499 0.01374175 0.62700003 nan
0.10938433 0.01374175 0.62700003 nan
0.11048367 0.01374175 0.62700003 nan
0.11158301 0.01374175 0.62700003 nan
0.11286207 0.013763666 0.62800002 nan
0.11396316 0.013763666 0.62800002 nan
0.11506426 0.013763666 0.62800002 nan
0.11598037 0.01374175 0.62700003 nan
0.11726644 0.013763666 0.62800002 nan
0.11836753 0.013763666 0.62800002 nan
0.11946863 0.013763666 0.62800002 nan
0.12056972 0.013763666 0.62800002 nan
0.12167081 0.013763666 0.62800002 nan
0.1229674 0.013785583 0.62900001 nan
0.123873 0.013763666 0.62800002 nan
0.12517309 0.013785583 0.62900001 nan
0.12627594 0.013785583 0.62900001 nan
0.1275813 0.0138075 0.63000005 nan
0.12868591 0.0138075 0.63000005 nan
0.1297905 0.0138075 0.63000005 -3.1960415e+38
0.13089509 0.0138075 0.63000005 -3.1558001e+38
0.1319997 0.0138075 0.63000005 -2.8488786e+38
0.13310429 0.0138075 0.63000005 -2.8487257e+38
0.1342089 0.0138075 0.63000005 -2.4349972e+38
0.1353135 0.0138075 0.63000005 -2.5009903e+38
0.1364181 0.0138075 0.63000005 -2.0339361e+38
0.1375227 0.0138075 0.63000005 -2.0736052e+38
0.13862731 0.0138075 0.63000005 -1.8609253e+38
0.1399537 0.013829417 0.63100004 -1.7014143e+38
0.14106005 0.013829417 0.63100004 -1.7014143e+38
0.14216641 0.013829417 0.63100004 -1.7014159e+38
0.14327276 0.013829417 0.63100004 -1.7014157e+38
0.14437911 0.013829417 0.63100004 -1.7014157e+38
0.14571603 0.013851333 0.63200003 -1.7014157e+38
0.14682414 0.013851333 0.63200003 -1.7014145e+38
0.14793225 0.013851333 0.63200003 -1.7014143e+38
0.14904034 0.013851333 0.63200003 -1.7014126e+38
0.15173522 0.013895167 0.634 -1.7014118e+38
0.15284683 0.013895167 0.634 -1.7014118e+38
0.15395844 0.013895167 0.634 -1.7014118e+38
0.15531465 0.013917083 0.63500005 -1.7014118e+38
0.15642801 0.013917083 0.63500005 -1.7014118e+38
0.15754138 0.013917083 0.63500005 -1.7014118e+38
0.15865475 0.013917083 0.63500005 -1.7014118e+38
0.15976812 0.013917083 0.63500005 -1.7014118e+38
0.16113484 0.013939 0.63600004 -1.7014145e+38
0.16224995 0.013939 0.63600004 -1.7014145e+38
0.16336508 0.013939 0.63600004 -1.7014145e+38
0.16448019 0.013939 0.63600004 -1.7014139e+38
0.16585569 0.013960917 0.63700002 -2.0735957e+38
0.16723469 0.013982833 0.63800001 -2.6468833e+38
0.16835332 0.013982833 0.63800001 nan
0.17000321 0.014026667 0.64000005 nan
0.17112534 0.014026667 0.64000005 -3.301497e+38
0.17224747 0.014026667 0.64000005 -2.1538262e+38
0.1733696 0.014026667 0.64000005 -2.1400682e+38
0.17476438 0.014048583 0.64100003 -2.5136077e+38
0.17588826 0.014048583 0.64100003 -2.7806973e+38
0.17701215 0.014048583 0.64100003 -2.8741081e+38
0.17813604 0.014048583 0.64100003 -3.3542463e+38
0.17925993 0.014048583 0.64100003 nan
0.1803838 0.014048583 0.64100003 nan
0.18150769 0.014048583 0.64100003 nan
0.18263158 0.014048583 0.64100003 nan
0.1834688 0.014026667 0.64000005 nan
0.18487936 0.014048583 0.64100003 nan
0.18600324 0.014048583 0.64100003 nan
0.18712713 0.014048583 0.64100003 nan
0.18854471 0.0140705 0.64200002 nan
0.18967034 0.0140705 0.64200002 nan
0.19109316 0.014092417 0.64300001 nan
0.19222057 0.014092417 0.64300001 nan
0.19334796 0.014092417 0.64300001 nan
0.19447535 0.014092417 0.64300001 nan
0.19590695 0.014114333 0.64400005 nan
0.19703609 0.014114333 0.64400005 nan
0.19816524 0.014114333 0.64400005 nan
0.19929439 0.014114333 0.64400005 nan
0.20104596 0.014158167 0.64600003 nan
0.20155267 0.014114333 0.64400005 nan
0.20268182 0.014114333 0.64400005 nan
0.20381097 0.014114333 0.64400005 nan
0.20494013 0.014114333 0.64400005 nan
0.20606926 0.014114333 0.64400005 nan
0.20719841 0.014114333 0.64400005 nan
0.20832756 0.014114333 0.64400005 nan
0.20945671 0.014114333 0.64400005 nan
0.21058585 0.014114333 0.64400005 nan
0.211715 0.014114333 0.64400005 nan
0.21284415 0.014114333 0.64400005 nan
0.2139733 0.014114333 0.64400005 nan
0.21510243 0.014114333 0.64400005 nan
0.21690311 0.014158167 0.64600003 nan
0.21803577 0.014158167 0.64600003 nan
0.21916842 0.014158167 0.64600003 nan
0.21961902 0.014114333 0.64400005 nan
0.22143373 0.014158167 0.64600003 nan
0.22256638 0.014158167 0.64600003 nan
0.22369903 0.014158167 0.64600003 nan
0.22483169 0.014158167 0.64600003 nan
0.22596434 0.014158167 0.64600003 nan
0.22709699 0.014158167 0.64600003 nan
0.22822964 0.014158167 0.64600003 nan
0.22971734 0.014180083 0.64700001 nan
0.23049495 0.014158167 0.64600003 nan
0.2316276 0.014158167 0.64600003 nan
0.23312058 0.014180083 0.64700001 nan
0.23425497 0.014180083 0.64700001 nan
0.23538938 0.014180083 0.64700001 nan
0.23652379 0.014180083 0.64700001 nan
0.23765819 0.014180083 0.64700001 nan
0.2387926 0.014180083 0.64700001 nan
0.23992701 0.014180083 0.64700001 nan
0.24106142 0.014180083 0.64700001 nan
0.24219581 0.014180083 0.64700001 -3.1296364e+38
0.24333023 0.014180083 0.64700001 -3.1957346e+38
0.24446464 0.014180083 0.64700001 -2.648562e+38
0.24559905 0.014180083 0.64700001 -2.6482519e+38
0.24673344 0.014180083 0.64700001 -1.8210543e+38
0.25353989 0.014180083 0.64700001 -1.7014118e+38
0.25467429 0.014180083 0.64700001 -1.7014118e+38
0.25541332 0.014158167 0.64600003 -1.7014118e+38
0.25654599 0.014158167 0.64600003 -1.7014118e+38
0.25767863 0.014158167 0.64600003 -1.7014118e+38
0.25994393 0.014158167 0.64600003 -1.7014118e+38
0.27790245 0.014092417 0.64300001 -1.9544884e+38
0.27902985 0.014092417 0.64300001 -1.9945738e+38
0.27972153 0.0140705 0.64200002 -1.9548022e+38
0.28084719 0.0140705 0.64200002 -1.9548022e+38
0.2815336 0.014048583 0.64100003 -1.9548529e+38
0.2826575 0.014048583 0.64100003 -1.9682492e+38
0.28378138 0.014048583 0.64100003 -2.0478993e+38
0.28490525 0.014048583 0.64100003 -2.0478993e+38
0.28602916 0.014048583 0.64100003 -2.0478486e+38
0.28760102 0.0140705 0.64200002 -2.0078675e+38
0.28872666 0.0140705 0.64200002 -2.1007569e+38
0.28940082 0.014048583 0.64100003 -2.0874125e+38
0.29097793 0.0140705 0.64200002 -1.9945231e+38
0.29210359 0.0140705 0.64200002 -1.9945231e+38
0.29368597 0.014092417 0.64300001 -1.901425e+38
0.29435486 0.0140705 0.64200002 -1.8613918e+38
0.29548049 0.0140705 0.64200002 -1.8881828e+38
0.29614413 0.014048583 0.64100003 -1.9148716e+38
0.29726803 0.014048583 0.64100003 -1.9945223e+38
0.29885742 0.0140705 0.64200002 -2.0345553e+38
0.29951578 0.014048583 0.64100003 -1.9815936e+38
