# .PCD v0.7 - Point Cloud Data file format
VERSION 0.7
FIELDS x y z rgb
SIZE 4 4 4 4
TYPE F F F F
COUNT 1 1 1 1
WIDTH 1268
HEIGHT 1
VIEWPOINT 0 0 0 1 0 0 0
POINTS 1268
DATA ascii
0.15674888 -0.23430407 0.62300003 nan
0.15784121 -0.23430407 0.62300003 nan
0.15918864 -0.23468016 0.62400001 nan
0.16002585 -0.23430407 0.62300003 nan
0.1613768 -0.23468016 0.62400001 nan
0.16273125 -0.23505625 0.625 nan
0.16382708 -0.23505625 0.625 nan
0.16492292 -0.23505625 0.625 nan
0.16601875 -0.23505625 0.625 nan
0.16711459 -0.23505625 0.625 nan
0.16821042 -0.23505625 0.625 nan
0.16930625 -0.23505625 0.625 nan
0.17040208 -0.23505625 0.625 nan
0.17149791 -0.23505625 0.625 nan
0.17259374 -0.23505625 0.625 nan
0.17368959 -0.23505625 0.625 nan
0.17478542 -0.23505625 0.625 nan
0.17588125 -0.23505625 0.625 nan
0.17697708 -0.23505625 0.625 nan
0.17864275 -0.23580843 0.62700003 nan
0.17974208 -0.23580843 0.62700003 nan
0.18084143 -0.23580843 0.62700003 nan
0.18194076 -0.23580843 0.62700003 nan
0.18304011 -0.23580843 0.62700003 nan
0.18413945 -0.23580843 0.62700003 nan
0.18523879 -0.23580843 0.62700003 nan
0.18633813 -0.23580843 0.62700003 nan
0.18743747 -0.23580843 0.62700003 nan
0.18853681 -0.23580843 0.62700003 nan
0.18963616 -0.23580843 0.62700003 nan
0.19012707 -0.23505625 0.625 nan
0.19122292 -0.23505625 0.625 nan
0.19231875 -0.23505625 0.625 nan
0.19341458 -0.23505625 0.625 nan
0.19451042 -0.23505625 0.625 nan
0.19560625 -0.23505625 0.625 nan
0.19670208 -0.23505625 0.625 nan
0.19843087 -0.23580843 0.62700003 nan
0.19889376 -0.23505625 0.625 nan
0.20062955 -0.23580843 0.62700003 nan
0.2017289 -0.23580843 0.62700003 nan
0.20218125 -0.23505625 0.625 nan
0.20327708 -0.23505625 0.625 nan
0.20437291 -0.23505625 0.625 nan
0.20546874 -0.23505625 0.625 nan
0.20656458 -0.23505625 0.625 nan
0.20766042 -0.23505625 0.625 nan
0.20875625 -0.23505625 0.625 nan
0.20985208 -0.23505625 0.625 nan
0.21162295 -0.23580843 0.62700003 nan
0.21204375 -0.23505625 0.625 nan
0.21382163 -0.23580843 0.62700003 nan
0.21492097 -0.23580843 0.62700003 nan
0.21602032 -0.23580843 0.62700003 nan
0.21711965 -0.23580843 0.62700003 nan
0.21752292 -0.23505625 0.625 nan
0.21861875 -0.23505625 0.625 nan
0.21971458 -0.23505625 0.625 nan
0.22081041 -0.23505625 0.625 nan
0.22261634 -0.23580843 0.62700003 nan
0.22371569 -0.23580843 0.62700003 nan
0.22481503 -0.23580843 0.62700003 nan
0.22591437 -0.23580843 0.62700003 nan
0.22701371 -0.23580843 0.62700003 nan
0.22811306 -0.23580843 0.62700003 nan
0.22921239 -0.23580843 0.62700003 nan
0.23031172 -0.23580843 0.62700003 nan
0.23141107 -0.23580843 0.62700003 nan
0.2325104 -0.23580843 0.62700003 nan
0.23360975 -0.23580843 0.62700003 nan
0.23470908 -0.23580843 0.62700003 nan
0.23580843 -0.23580843 0.62700003 nan
0.23690777 -0.23580843 0.62700003 nan
0.23800711 -0.23580843 0.62700003 nan
0.23910645 -0.23580843 0.62700003 nan
0.24020579 -0.23580843 0.62700003 nan
0.24130513 -0.23580843 0.62700003 nan
0.24240448 -0.23580843 0.62700003 nan
0.24350381 -0.23580843 0.62700003 nan
0.24460314 -0.23580843 0.62700003 nan
0.24570249 -0.23580843 0.62700003 nan
0.24680182 -0.23580843 0.62700003 nan
0.24790117 -0.23580843 0.62700003 nan
0.2490005 -0.23580843 0.62700003 nan
0.25049874 -0.23618452 0.62800002 nan
0.25200045 -0.23656061 0.62900001 nan
0.25310332 -0.23656061 0.62900001 nan
0.25420615 -0.23656061 0.62900001 nan
0.25571489 -0.2369367 0.63000005 nan
0.25681949 -0.2369367 0.63000005 nan
0.25792411 -0.2369367 0.63000005 nan
0.2590287 -0.2369367 0.63000005 nan
0.2601333 -0.2369367 0.63000005 nan
0.26082325 -0.23656061 0.62900001 nan
0.26192608 -0.23656061 0.62900001 nan
0.26302892 -0.23656061 0.62900001 nan
0.26371184 -0.23618452 0.62800002 nan
0.26481295 -0.23618452 0.62800002 nan
0.26658994 -0.23580843 0.62700003 nan
0.26811624 -0.23618452 0.62800002 nan
0.26921731 -0.23618452 0.62800002 nan
0.27031842 -0.23618452 0.62800002 nan
0.2714195 -0.23618452 0.62800002 nan
0.2725206 -0.23618452 0.62800002 nan
0.27362168 -0.23618452 0.62800002 nan
0.27472278 -0.23618452 0.62800002 nan
0.27582389 -0.23618452 0.62800002 nan
0.27648401 -0.23580843 0.62700003 nan
0.27758336 -0.23580843 0.62700003 nan
0.27868268 -0.23580843 0.62700003 nan
0.27978203 -0.23580843 0.62700003 nan
0.28088138 -0.23580843 0.62700003 nan
0.28198069 -0.23580843 0.62700003 nan
0.28719601 -0.23468016 0.62400001 nan
0.28829008 -0.23468016 0.62400001 nan
0.28938416 -0.23468016 0.62400001 nan
0.29047823 -0.23468016 0.62400001 nan
0.29157233 -0.23468016 0.62400001 nan
0.29266641 -0.23468016 0.62400001 nan
0.29376048 -0.23468016 0.62400001 nan
0.29485455 -0.23468016 0.62400001 nan
0.29594862 -0.23468016 0.62400001 nan
0.29704273 -0.23468016 0.62400001 nan
0.2981368 -0.23468016 0.62400001 nan
0.29923087 -0.23468016 0.62400001 nan
0.30032495 -0.23468016 0.62400001 nan
0.31847984 -0.23355189 0.62100005 nan
0.31956866 -0.23355189 0.62100005 nan
-0.33568004 -0.22572501 0.60300004 -3.3831183e+38
-0.33406785 -0.22535068 0.60200006 -3.3964627e+38
-0.33301234 -0.22535068 0.60200006 -3.3965138e+38
-0.33195683 -0.22535068 0.60200006 -3.3965138e+38
-0.33090132 -0.22535068 0.60200006 -3.3828573e+38
-0.32984585 -0.22535068 0.60200006 nan
-0.32566237 -0.22684802 0.60600001 -3.3967231e+38
-0.32352856 -0.22609934 0.60400003 nan
-0.32353735 -0.22684802 0.60600001 nan
-0.32141054 -0.22609934 0.60400003 nan
-0.31454536 -0.22497633 0.60100001 nan
-0.31401324 -0.22535068 0.60200006 nan
-0.31295773 -0.22535068 0.60200006 nan
-0.30759954 -0.22684802 0.60600001 nan
-0.30653703 -0.22684802 0.60600001 nan
-0.29844451 -0.22797103 0.60900003 nan
-0.29737672 -0.22797103 0.60900003 nan
-0.29630893 -0.22797103 0.60900003 nan
-0.29524118 -0.22797103 0.60900003 nan
-0.29369035 -0.22759669 0.60800004 nan
-0.29262432 -0.22759669 0.60800004 nan
-0.2915583 -0.22759669 0.60800004 nan
-0.29049227 -0.22759669 0.60800004 nan
-0.28990227 -0.22797103 0.60900003 nan
-0.28883448 -0.22797103 0.60900003 nan
-0.2877667 -0.22797103 0.60900003 nan
-0.28622815 -0.22759669 0.60800004 nan
-0.28516212 -0.22759669 0.60800004 nan
-0.28242782 -0.22797103 0.60900003 nan
-0.28182203 -0.22834536 0.61000001 nan
-0.28075251 -0.22834536 0.61000001 nan
-0.27968296 -0.22834536 0.61000001 nan
-0.2781567 -0.22797103 0.60900003 nan
-0.2775439 -0.22834536 0.61000001 nan
-0.27692759 -0.2287197 0.611 nan
-0.27585632 -0.2287197 0.611 nan
-0.27478504 -0.2287197 0.611 nan
-0.27371374 -0.2287197 0.611 nan
-0.27308866 -0.22909404 0.61200005 nan
-0.27201563 -0.22909404 0.61200005 nan
-0.27138531 -0.22946838 0.61300004 nan
-0.26986957 -0.22909404 0.61200005 nan
-0.2687965 -0.22909404 0.61200005 nan
-0.26772347 -0.22909404 0.61200005 nan
-0.26665044 -0.22909404 0.61200005 nan
-0.26514345 -0.2287197 0.611 nan
-0.26407215 -0.2287197 0.611 nan
-0.26257044 -0.22834536 0.61000001 nan
-0.2619296 -0.2287197 0.611 nan
-0.26128525 -0.22909404 0.61200005 nan
-0.26021221 -0.22909404 0.61200005 nan
-0.25913915 -0.22909404 0.61200005 nan
-0.25806612 -0.22909404 0.61200005 nan
-0.257413 -0.22946838 0.61300004 nan
-0.25633821 -0.22946838 0.61300004 nan
-0.25526342 -0.22946838 0.61300004 nan
-0.25418863 -0.22946838 0.61300004 nan
-0.25203905 -0.22946838 0.61300004 nan
-0.25096425 -0.22946838 0.61300004 nan
-0.24988945 -0.22946838 0.61300004 nan
-0.24881466 -0.22946838 0.61300004 nan
-0.248144 -0.22984271 0.61400002 nan
-0.24666508 -0.22946838 0.61300004 nan
-0.24559027 -0.22946838 0.61300004 nan
-0.24491437 -0.22984271 0.61400002 nan
-0.24383782 -0.22984271 0.61400002 nan
-0.24276127 -0.22984271 0.61400002 nan
-0.24168472 -0.22984271 0.61400002 nan
-0.24060819 -0.22984271 0.61400002 nan
-0.22984271 -0.22984271 0.61400002 nan
-0.22876616 -0.22984271 0.61400002 nan
-0.22768962 -0.22984271 0.61400002 nan
-0.22267158 -0.23134007 0.61800003 nan
-0.22158802 -0.23134007 0.61800003 nan
-0.22050446 -0.23134007 0.61800003 nan
-0.21942089 -0.23134007 0.61800003 nan
-0.21512085 -0.23021705 0.61500001 nan
-0.21439059 -0.23059139 0.61600006 nan
-0.21331052 -0.23059139 0.61600006 nan
-0.21188594 -0.23021705 0.61500001 nan
-0.21080765 -0.23021705 0.61500001 nan
-0.21007037 -0.23059139 0.61600006 nan
-0.20899032 -0.23059139 0.61600006 nan
-0.20791027 -0.23059139 0.61600006 nan
-0.20683022 -0.23059139 0.61600006 nan
-0.20575015 -0.23059139 0.61600006 nan
-0.2046701 -0.23059139 0.61600006 nan
-0.20425107 -0.23134007 0.61800003 nan
-0.2031675 -0.23134007 0.61800003 nan
-0.20208395 -0.23134007 0.61800003 nan
-0.20100038 -0.23134007 0.61800003 nan
-0.19991682 -0.23134007 0.61800003 nan
-0.19883326 -0.23134007 0.61800003 nan
-0.19710973 -0.23059139 0.61600006 nan
-0.19602968 -0.23059139 0.61600006 nan
-0.19494963 -0.23059139 0.61600006 nan
-0.19355485 -0.23021705 0.61500001 nan
-0.19278952 -0.23059139 0.61600006 nan
-0.19170946 -0.23059139 0.61600006 nan
-0.19062941 -0.23059139 0.61600006 nan
-0.18954936 -0.23059139 0.61600006 nan
-0.18908122 -0.23134007 0.61800003 nan
-0.18799765 -0.23134007 0.61800003 nan
-0.1869141 -0.23134007 0.61800003 nan
-0.18583053 -0.23134007 0.61800003 nan
-0.18474698 -0.23134007 0.61800003 nan
-0.18366341 -0.23134007 0.61800003 nan
-0.18287529 -0.2317144 0.61900002 nan
-0.18178998 -0.2317144 0.61900002 nan
-0.18070467 -0.2317144 0.61900002 nan
-0.17961936 -0.2317144 0.61900002 nan
-0.17882247 -0.23208873 0.62 nan
-0.17744873 -0.2317144 0.61900002 nan
-0.17636341 -0.2317144 0.61900002 nan
-0.1752781 -0.2317144 0.61900002 nan
-0.17419279 -0.2317144 0.61900002 nan
-0.17310748 -0.2317144 0.61900002 nan
-0.17202216 -0.2317144 0.61900002 nan
-0.17093685 -0.2317144 0.61900002 nan
-0.16957714 -0.23134007 0.61800003 nan
-0.16876622 -0.2317144 0.61900002 nan
-0.16741002 -0.23134007 0.61800003 nan
-0.16632646 -0.23134007 0.61800003 nan
-0.1652429 -0.23134007 0.61800003 nan
-0.16415934 -0.23134007 0.61800003 nan
-0.16307577 -0.23134007 0.61800003 nan
-0.16199222 -0.23134007 0.61800003 nan
-0.16090865 -0.23134007 0.61800003 nan
-0.1598251 -0.23134007 0.61800003 nan
-0.15874153 -0.23134007 0.61800003 nan
-0.15765798 -0.23134007 0.61800003 nan
-0.15657441 -0.23134007 0.61800003 nan
-0.15549086 -0.23134007 0.61800003 nan
-0.15440729 -0.23134007 0.61800003 nan
-0.15332374 -0.23134007 0.61800003 nan
-0.15224017 -0.23134007 0.61800003 nan
-0.15115662 -0.23134007 0.61800003 nan
-0.15007307 -0.23134007 0.61800003 nan
-0.1489895 -0.23134007 0.61800003 nan
-0.14790595 -0.23134007 0.61800003 nan
-0.14705996 -0.2317144 0.61900002 nan
-0.14597464 -0.2317144 0.61900002 nan
-0.14512339 -0.23208873 0.62 nan
-0.14380401 -0.2317144 0.61900002 nan
-0.1427187 -0.2317144 0.61900002 nan
-0.14163339 -0.2317144 0.61900002 nan
-0.14054808 -0.2317144 0.61900002 nan
-0.13946277 -0.2317144 0.61900002 nan
-0.13837744 -0.2317144 0.61900002 nan
-0.13729213 -0.2317144 0.61900002 nan
-0.13620682 -0.2317144 0.61900002 nan
-0.12860963 -0.2317144 0.61900002 nan
-0.12752432 -0.2317144 0.61900002 nan
-0.12643901 -0.2317144 0.61900002 nan
-0.12535369 -0.2317144 0.61900002 nan
-0.12426838 -0.2317144 0.61900002 nan
-0.12338207 -0.23208873 0.62 nan
-0.122295 -0.23208873 0.62 nan
-0.12140343 -0.23246306 0.62100005 nan
-0.12012087 -0.23208873 0.62 nan
-0.11884181 -0.2317144 0.61900002 nan
-0.11775649 -0.2317144 0.61900002 nan
-0.11685967 -0.23208873 0.62 nan
-0.1157726 -0.23208873 0.62 nan
-0.11450055 -0.2317144 0.61900002 nan
-0.11359847 -0.23208873 0.62 nan
-0.11232993 -0.2317144 0.61900002 nan
-0.11142433 -0.23208873 0.62 nan
-0.11033726 -0.23208873 0.62 nan
-0.1092502 -0.23208873 0.62 nan
-0.10798868 -0.2317144 0.61900002 nan
-0.10690336 -0.2317144 0.61900002 nan
-0.105989 -0.23208873 0.62 nan
-0.10490193 -0.23208873 0.62 nan
-0.10381486 -0.23208873 0.62 nan
-0.1027278 -0.23208873 0.62 nan
-0.10164073 -0.23208873 0.62 nan
-0.10055367 -0.23208873 0.62 nan
-0.0994666 -0.23208873 0.62 nan
-0.098220855 -0.2317144 0.61900002 nan
-0.094964914 -0.2317144 0.61900002 nan
-0.093879603 -0.2317144 0.61900002 nan
-0.092794292 -0.2317144 0.61900002 nan
-0.091708973 -0.2317144 0.61900002 nan
-0.089827649 -0.23246306 0.62100005 nan
-0.088738829 -0.23246306 0.62100005 nan
-0.087650008 -0.23246306 0.62100005 nan
-0.086561188 -0.23246306 0.62100005 nan
-0.085472368 -0.23246306 0.62100005 nan
-0.084383547 -0.23246306 0.62100005 nan
-0.083294727 -0.23246306 0.62100005 nan
-0.082205907 -0.23246306 0.62100005 nan
-0.081117086 -0.23246306 0.62100005 nan
-0.080028273 -0.23246306 0.62100005 nan
-0.079066567 -0.23283741 0.62200004 nan
-0.077850632 -0.23246306 0.62100005 nan
-0.076761812 -0.23246306 0.62100005 nan
-0.075672992 -0.23246306 0.62100005 nan
-0.074584171 -0.23246306 0.62100005 nan
-0.073495351 -0.23246306 0.62100005 nan
-0.07240653 -0.23246306 0.62100005 nan
-0.071202867 -0.23208873 0.62 nan
-0.070115797 -0.23208873 0.62 nan
-0.069028735 -0.23208873 0.62 nan
-0.067941666 -0.23208873 0.62 nan
-0.066854596 -0.23208873 0.62 nan
-0.065767534 -0.23208873 0.62 nan
-0.064680465 -0.23208873 0.62 nan
-0.063695967 -0.23246306 0.62100005 nan
-0.062707968 -0.23283741 0.62200004 nan
-0.061617393 -0.23283741 0.62200004 nan
-0.060526818 -0.23283741 0.62200004 nan
-0.059436247 -0.23283741 0.62200004 nan
-0.058345672 -0.23283741 0.62200004 nan
-0.0572551 -0.23283741 0.62200004 nan
-0.056164525 -0.23283741 0.62200004 nan
-0.055073954 -0.23283741 0.62200004 nan
-0.053983379 -0.23283741 0.62200004 nan
-0.052892808 -0.23283741 0.62200004 nan
-0.051802233 -0.23283741 0.62200004 nan
-0.050711658 -0.23283741 0.62200004 nan
-0.049541309 -0.23246306 0.62100005 nan
-0.048452489 -0.23246306 0.62100005 nan
-0.047363669 -0.23246306 0.62100005 nan
-0.046349365 -0.23283741 0.62200004 nan
-0.045186028 -0.23246306 0.62100005 nan
-0.044097211 -0.23246306 0.62100005 nan
-0.043077648 -0.23283741 0.62200004 nan
-0.041987073 -0.23283741 0.62200004 nan
-0.040896501 -0.23283741 0.62200004 nan
-0.039805926 -0.23283741 0.62200004 nan
-0.038715351 -0.23283741 0.62200004 nan
-0.037564289 -0.23246306 0.62100005 nan
-0.036534205 -0.23283741 0.62200004 nan
-0.035386648 -0.23246306 0.62100005 nan
-0.034297831 -0.23246306 0.62100005 nan
-0.033262488 -0.23283741 0.62200004 nan
-0.032171912 -0.23283741 0.62200004 nan
-0.03103137 -0.23246306 0.62100005 nan
-0.02994255 -0.23246306 0.62100005 nan
-0.028900193 -0.23283741 0.62200004 nan
-0.02780962 -0.23283741 0.62200004 nan
-0.026719047 -0.23283741 0.62200004 nan
-0.025628474 -0.23283741 0.62200004 nan
-0.0245379 -0.23283741 0.62200004 nan
-0.023447327 -0.23283741 0.62200004 nan
-0.021266179 -0.23283741 0.62200004 nan
-0.0179366 -0.23208873 0.62 nan
-0.016849533 -0.23208873 0.62 nan
-0.01578789 -0.23246306 0.62100005 nan
-0.0146754 -0.23208873 0.62 nan
-0.013588334 -0.23208873 0.62 nan
-0.012501267 -0.23208873 0.62 nan
-0.01143261 -0.23246306 0.62100005 nan
-0.01034379 -0.23246306 0.62100005 nan
-0.0092549697 -0.23246306 0.62100005 nan
-0.0081661502 -0.23246306 0.62100005 nan
-0.0070659332 -0.23208873 0.62 nan
-0.0059788665 -0.23208873 0.62 nan
-0.0048996899 -0.23246306 0.62100005 nan
-0.00381087 -0.23246306 0.62100005 nan
-0.0027220501 -0.23246306 0.62100005 nan
-0.00163323 -0.23246306 0.62100005 nan
-0.00054441002 -0.23246306 0.62100005 nan
0.00054441002 -0.23246306 0.62100005 nan
0.00163323 -0.23246306 0.62100005 nan
0.0027220501 -0.23246306 0.62100005 nan
0.00381087 -0.23246306 0.62100005 nan
0.0048996899 -0.23246306 0.62100005 nan
0.0059885099 -0.23246306 0.62100005 nan
0.0070773298 -0.23246306 0.62100005 nan
0.0081661502 -0.23246306 0.62100005 nan
0.0092549697 -0.23246306 0.62100005 nan
0.01034379 -0.23246306 0.62100005 nan
0.01145102 -0.23283741 0.62200004 nan
0.012541593 -0.23283741 0.62200004 nan
0.013632166 -0.23283741 0.62200004 nan
0.01472274 -0.23283741 0.62200004 nan
0.015813313 -0.23283741 0.62200004 nan
0.016903887 -0.23283741 0.62200004 nan
0.017965529 -0.23246306 0.62100005 nan
0.01905435 -0.23246306 0.62100005 nan
0.020175606 -0.23283741 0.62200004 nan
0.021266179 -0.23283741 0.62200004 nan
0.041987073 -0.23283741 0.62200004 nan
0.043077648 -0.23283741 0.62200004 nan
0.044168219 -0.23283741 0.62200004 nan
0.045331556 -0.23321174 0.62300003 nan
0.046349365 -0.23283741 0.62200004 nan
0.047516208 -0.23321174 0.62300003 nan
0.048530512 -0.23283741 0.62200004 nan
0.049621087 -0.23283741 0.62200004 nan
0.050711658 -0.23283741 0.62200004 nan
0.051802233 -0.23283741 0.62200004 nan
0.052892808 -0.23283741 0.62200004 nan
0.053983379 -0.23283741 0.62200004 nan
0.055073954 -0.23283741 0.62200004 nan
0.056164525 -0.23283741 0.62200004 nan
0.0572551 -0.23283741 0.62200004 nan
0.058345672 -0.23283741 0.62200004 nan
0.059436247 -0.23283741 0.62200004 nan
0.06062413 -0.23321174 0.62300003 nan
0.063901111 -0.23321174 0.62300003 nan
0.064993434 -0.23321174 0.62300003 nan
0.066191837 -0.23358607 0.62400001 nan
0.067285918 -0.23358607 0.62400001 nan
0.068379998 -0.23358607 0.62400001 nan
0.069585413 -0.23396042 0.625 nan
0.070681252 -0.23396042 0.625 nan
0.071777083 -0.23396042 0.625 nan
0.072639726 -0.23321174 0.62300003 nan
0.073850401 -0.23358607 0.62400001 nan
0.074944481 -0.23358607 0.62400001 nan
0.076160416 -0.23396042 0.625 nan
0.077132642 -0.23358607 0.62400001 nan
0.078101359 -0.23321174 0.62300003 nan
0.079193681 -0.23321174 0.62300003 nan
0.080286011 -0.23321174 0.62300003 nan
0.081508957 -0.23358607 0.62400001 nan
0.082603037 -0.23358607 0.62400001 nan
0.083697118 -0.23358607 0.62400001 nan
0.084519431 -0.23283741 0.62200004 nan
0.085885279 -0.23358607 0.62400001 nan
0.086979359 -0.23358607 0.62400001 nan
0.08807344 -0.23358607 0.62400001 nan
0.08916752 -0.23358607 0.62400001 nan
0.090261601 -0.23358607 0.62400001 nan
0.091209278 -0.23321174 0.62300003 nan
0.0923016 -0.23321174 0.62300003 nan
0.093393929 -0.23321174 0.62300003 nan
0.094486259 -0.23321174 0.62300003 nan
0.095578581 -0.23321174 0.62300003 nan
0.096826077 -0.23358607 0.62400001 nan
0.097920157 -0.23358607 0.62400001 nan
0.099014238 -0.23358607 0.62400001 nan
0.10010832 -0.23358607 0.62400001 nan
0.1012024 -0.23358607 0.62400001 nan
0.10229648 -0.23358607 0.62400001 nan
0.10339056 -0.23358607 0.62400001 nan
0.10448464 -0.23358607 0.62400001 nan
0.10557872 -0.23358607 0.62400001 nan
0.1066728 -0.23358607 0.62400001 nan
0.10776688 -0.23358607 0.62400001 nan
0.10886096 -0.23358607 0.62400001 nan
0.10977883 -0.23321174 0.62300003 nan
0.11087116 -0.23321174 0.62300003 nan
0.11196348 -0.23321174 0.62300003 nan
0.11287434 -0.23283741 0.62200004 nan
0.11396492 -0.23283741 0.62200004 nan
0.11505549 -0.23283741 0.62200004 nan
0.11614606 -0.23283741 0.62200004 nan
0.11742511 -0.23321174 0.62300003 nan
0.11851744 -0.23321174 0.62300003 nan
0.11960977 -0.23321174 0.62300003 nan
0.12089584 -0.23358607 0.62400001 nan
0.12198992 -0.23358607 0.62400001 nan
0.123084 -0.23358607 0.62400001 nan
0.12417808 -0.23358607 0.62400001 nan
0.12507141 -0.23321174 0.62300003 nan
0.12616374 -0.23321174 0.62300003 nan
0.12725605 -0.23321174 0.62300003 nan
0.12834838 -0.23321174 0.62300003 nan
0.12944071 -0.23321174 0.62300003 nan
0.13053304 -0.23321174 0.62300003 nan
0.13183664 -0.23358607 0.62400001 nan
0.13293073 -0.23358607 0.62400001 nan
0.1340248 -0.23358607 0.62400001 nan
0.13511887 -0.23358607 0.62400001 nan
0.13621296 -0.23358607 0.62400001 nan
0.13730703 -0.23358607 0.62400001 nan
0.13840112 -0.23358607 0.62400001 nan
0.13927165 -0.23321174 0.62300003 nan
0.14036398 -0.23321174 0.62300003 nan
0.14145631 -0.23321174 0.62300003 nan
0.14277744 -0.23358607 0.62400001 nan
0.14387152 -0.23358607 0.62400001 nan
0.1449656 -0.23358607 0.62400001 nan
0.14605968 -0.23358607 0.62400001 nan
0.14715376 -0.23358607 0.62400001 nan
0.14824784 -0.23358607 0.62400001 nan
0.14934193 -0.23358607 0.62400001 nan
0.150436 -0.23358607 0.62400001 nan
0.15153007 -0.23358607 0.62400001 nan
0.15237957 -0.23321174 0.62300003 nan
0.1534719 -0.23321174 0.62300003 nan
0.15481232 -0.23358607 0.62400001 nan
0.15565655 -0.23321174 0.62300003 nan
0.15700048 -0.23358607 0.62400001 nan
0.15809456 -0.23358607 0.62400001 nan
0.15944375 -0.23396042 0.625 nan
0.16028272 -0.23358607 0.62400001 nan
0.16163541 -0.23396042 0.625 nan
0.16273125 -0.23396042 0.625 nan
0.16382708 -0.23396042 0.625 nan
0.16545066 -0.23470908 0.62700003 nan
0.16655001 -0.23470908 0.62700003 nan
0.16764934 -0.23470908 0.62700003 nan
0.16821042 -0.23396042 0.625 nan
0.16984802 -0.23470908 0.62700003 nan
0.17040208 -0.23396042 0.625 nan
0.17149791 -0.23396042 0.625 nan
0.17314605 -0.23470908 0.62700003 nan
0.17368959 -0.23396042 0.625 nan
0.17534474 -0.23470908 0.62700003 nan
0.17588125 -0.23396042 0.625 nan
0.1775434 -0.23470908 0.62700003 nan
0.17864275 -0.23470908 0.62700003 nan
0.17974208 -0.23470908 0.62700003 nan
0.18084143 -0.23470908 0.62700003 nan
0.18194076 -0.23470908 0.62700003 nan
0.18333204 -0.23508343 0.62800002 nan
0.18443313 -0.23508343 0.62800002 nan
0.18553422 -0.23508343 0.62800002 nan
0.18663532 -0.23508343 0.62800002 nan
0.18773641 -0.23508343 0.62800002 nan
0.1888375 -0.23508343 0.62800002 nan
0.1899386 -0.23508343 0.62800002 nan
0.19073549 -0.23470908 0.62700003 nan
0.19183482 -0.23470908 0.62700003 nan
0.19324188 -0.23508343 0.62800002 nan
0.19434297 -0.23508343 0.62800002 nan
0.19513285 -0.23470908 0.62700003 nan
0.19623218 -0.23470908 0.62700003 nan
0.19733153 -0.23470908 0.62700003 nan
0.19843087 -0.23470908 0.62700003 nan
0.19953021 -0.23470908 0.62700003 nan
0.20062955 -0.23470908 0.62700003 nan
0.2017289 -0.23470908 0.62700003 nan
0.20282823 -0.23470908 0.62700003 nan
0.20392756 -0.23470908 0.62700003 nan
0.20502691 -0.23470908 0.62700003 nan
0.20612624 -0.23470908 0.62700003 nan
0.20656458 -0.23396042 0.625 nan
0.20832492 -0.23470908 0.62700003 nan
0.20875625 -0.23396042 0.625 nan
0.21052361 -0.23470908 0.62700003 nan
0.21162295 -0.23470908 0.62700003 nan
0.21272229 -0.23470908 0.62700003 nan
0.21382163 -0.23470908 0.62700003 nan
0.21492097 -0.23470908 0.62700003 nan
0.21602032 -0.23470908 0.62700003 nan
0.21711965 -0.23470908 0.62700003 nan
0.21821898 -0.23470908 0.62700003 nan
0.21931833 -0.23470908 0.62700003 nan
0.22041766 -0.23470908 0.62700003 nan
0.22151701 -0.23470908 0.62700003 nan
0.22261634 -0.23470908 0.62700003 nan
0.22371569 -0.23470908 0.62700003 nan
0.22517359 -0.23508343 0.62800002 nan
0.22627468 -0.23508343 0.62800002 nan
0.22737578 -0.23508343 0.62800002 nan
0.22847687 -0.23508343 0.62800002 nan
0.22957796 -0.23508343 0.62800002 nan
0.23067905 -0.23508343 0.62800002 nan
0.23178014 -0.23508343 0.62800002 nan
0.23288123 -0.23508343 0.62800002 nan
0.23398232 -0.23508343 0.62800002 nan
0.23508343 -0.23508343 0.62800002 nan
0.23618452 -0.23508343 0.62800002 nan
0.23728561 -0.23508343 0.62800002 nan
0.23838671 -0.23508343 0.62800002 nan
0.2394878 -0.23508343 0.62800002 nan
0.24058889 -0.23508343 0.62800002 nan
0.24130513 -0.23470908 0.62700003 nan
0.24279107 -0.23508343 0.62800002 nan
0.24350381 -0.23470908 0.62700003 nan
0.24460314 -0.23470908 0.62700003 nan
0.24609436 -0.23508343 0.62800002 nan
0.24719545 -0.23508343 0.62800002 nan
0.24829654 -0.23508343 0.62800002 nan
0.24939764 -0.23508343 0.62800002 nan
0.25089762 -0.23545776 0.62900001 nan
0.25200045 -0.23545776 0.62900001 nan
0.25420615 -0.23545776 0.62900001 nan
0.26344711 -0.2358321 0.63000005 nan
0.26413178 -0.23545776 0.62900001 nan
0.26523462 -0.23545776 0.62900001 nan
0.26633745 -0.23545776 0.62900001 nan
0.26744032 -0.23545776 0.62900001 nan
0.26854315 -0.23545776 0.62900001 nan
0.26964602 -0.23545776 0.62900001 nan
0.27074885 -0.23545776 0.62900001 nan
0.27185169 -0.23545776 0.62900001 nan
0.2725206 -0.23508343 0.62800002 nan
0.27405739 -0.23545776 0.62900001 nan
0.27516025 -0.23545776 0.62900001 nan
0.27582389 -0.23508343 0.62800002 nan
0.27692497 -0.23508343 0.62800002 nan
0.27802607 -0.23508343 0.62800002 nan
0.27912715 -0.23508343 0.62800002 nan
0.28022826 -0.23508343 0.62800002 nan
0.28177732 -0.23545776 0.62900001 nan
0.28243044 -0.23508343 0.62800002 nan
0.28353152 -0.23508343 0.62800002 nan
0.28984791 -0.23396042 0.625 nan
0.29094374 -0.23396042 0.625 nan
0.29203957 -0.23396042 0.625 nan
0.2931354 -0.23396042 0.625 nan
0.29423124 -0.23396042 0.625 nan
0.29532707 -0.23396042 0.625 nan
0.29642293 -0.23396042 0.625 nan
0.29704273 -0.23358607 0.62400001 nan
0.2981368 -0.23358607 0.62400001 nan
0.29923087 -0.23358607 0.62400001 nan
0.30032495 -0.23358607 0.62400001 nan
0.30141905 -0.23358607 0.62400001 nan
0.30251312 -0.23358607 0.62400001 nan
0.30409375 -0.23396042 0.625 nan
0.30470127 -0.23358607 0.62400001 nan
0.30579537 -0.23358607 0.62400001 nan
0.30688944 -0.23358607 0.62400001 nan
0.30798352 -0.23358607 0.62400001 nan
0.30907759 -0.23358607 0.62400001 nan
0.31017166 -0.23358607 0.62400001 nan
0.31513625 -0.23321174 0.62300003 nan
0.31572098 -0.23283741 0.62200004 nan
0.31790212 -0.23283741 0.62200004 nan
0.31847984 -0.23246306 0.62100005 nan
0.31956866 -0.23246306 0.62100005 nan
-0.3346228 -0.22466774 0.60300004 nan
-0.33356553 -0.22466774 0.60300004 nan
-0.33250827 -0.22466774 0.60300004 nan
-0.32672489 -0.22578549 0.60600001 nan
-0.32566237 -0.22578549 0.60600001 nan
-0.32459986 -0.22578549 0.60600001 nan
-0.32353735 -0.22578549 0.60600001 nan
-0.32247481 -0.22578549 0.60600001 nan
-0.3214123 -0.22578549 0.60600001 nan
-0.31506875 -0.22429517 0.60200006 nan
-0.31453484 -0.22466774 0.60300004 nan
-0.30866206 -0.22578549 0.60600001 nan
-0.30759954 -0.22578549 0.60600001 nan
-0.30000409 -0.22727583 0.61000001 nan
-0.29942462 -0.22764842 0.611 nan
-0.29835334 -0.22764842 0.611 nan
-0.29679549 -0.22727583 0.61000001 nan
-0.29097006 -0.22690324 0.60900003 nan
-0.28990227 -0.22690324 0.60900003 nan
-0.28883448 -0.22690324 0.60900003 nan
-0.28823924 -0.22727583 0.61000001 nan
-0.28669894 -0.22690324 0.60900003 nan
-0.28610018 -0.22727583 0.61000001 nan
-0.28456336 -0.22690324 0.60900003 nan
-0.28396109 -0.22727583 0.61000001 nan
-0.28289157 -0.22727583 0.61000001 nan
-0.28182203 -0.22727583 0.61000001 nan
-0.28075251 -0.22727583 0.61000001 nan
-0.28014147 -0.22764842 0.611 nan
-0.27861342 -0.22727583 0.61000001 nan
-0.27799889 -0.22764842 0.611 nan
-0.27692759 -0.22764842 0.611 nan
-0.27630779 -0.228021 0.61200005 nan
-0.27523476 -0.228021 0.61200005 nan
-0.26923573 -0.22839358 0.61300004 nan
-0.26816094 -0.22839358 0.61300004 nan
-0.26708615 -0.22839358 0.61300004 nan
-0.26557741 -0.228021 0.61200005 nan
-0.26450437 -0.228021 0.61200005 nan
-0.26343131 -0.228021 0.61200005 nan
-0.26235828 -0.228021 0.61200005 nan
-0.26171216 -0.22839358 0.61300004 nan
-0.26063737 -0.22839358 0.61300004 nan
-0.25956258 -0.22839358 0.61300004 nan
-0.25890946 -0.22876616 0.61400002 nan
-0.25783291 -0.22876616 0.61400002 nan
-0.25675637 -0.22876616 0.61400002 nan
-0.25567985 -0.22876616 0.61400002 nan
-0.2546033 -0.22876616 0.61400002 nan
-0.25352675 -0.22876616 0.61400002 nan
-0.2524502 -0.22876616 0.61400002 nan
-0.25137365 -0.22876616 0.61400002 nan
-0.2502971 -0.22876616 0.61400002 nan
-0.24922055 -0.22876616 0.61400002 nan
-0.248144 -0.22876616 0.61400002 nan
-0.24706745 -0.22876616 0.61400002 nan
-0.24599092 -0.22876616 0.61400002 nan
-0.24491437 -0.22876616 0.61400002 nan
-0.24383782 -0.22876616 0.61400002 nan
-0.24276127 -0.22876616 0.61400002 nan
-0.24168472 -0.22876616 0.61400002 nan
-0.24060819 -0.22876616 0.61400002 nan
-0.22984271 -0.22876616 0.61400002 nan
-0.22913875 -0.22913875 0.61500001 nan
-0.22158802 -0.2302565 0.61800003 nan
-0.22050446 -0.2302565 0.61800003 nan
-0.21942089 -0.2302565 0.61800003 nan
-0.21833734 -0.2302565 0.61800003 nan
-0.21725377 -0.2302565 0.61800003 nan
-0.21547064 -0.22951134 0.61600006 nan
-0.21508665 -0.2302565 0.61800003 nan
-0.21331052 -0.22951134 0.61600006 nan
-0.21223047 -0.22951134 0.61600006 nan
-0.21115042 -0.22951134 0.61600006 nan
-0.21007037 -0.22951134 0.61600006 nan
-0.20899032 -0.22951134 0.61600006 nan
-0.20791027 -0.22951134 0.61600006 nan
-0.20683022 -0.22951134 0.61600006 nan
-0.20641817 -0.2302565 0.61800003 nan
-0.20533462 -0.2302565 0.61800003 nan
-0.20425107 -0.2302565 0.61800003 nan
-0.2031675 -0.2302565 0.61800003 nan
-0.20208395 -0.2302565 0.61800003 nan
-0.20100038 -0.2302565 0.61800003 nan
-0.20024031 -0.23062909 0.61900002 nan
-0.199155 -0.23062909 0.61900002 nan
-0.1977497 -0.2302565 0.61800003 nan
-0.19666614 -0.2302565 0.61800003 nan
-0.19558258 -0.2302565 0.61800003 nan
-0.19449902 -0.2302565 0.61800003 nan
-0.19124834 -0.2302565 0.61800003 nan
-0.19016477 -0.2302565 0.61800003 nan
-0.18908122 -0.2302565 0.61800003 nan
-0.18799765 -0.2302565 0.61800003 nan
-0.18721655 -0.23062909 0.61900002 nan
-0.18613124 -0.23062909 0.61900002 nan
-0.18504593 -0.23062909 0.61900002 nan
-0.1839606 -0.23062909 0.61900002 nan
-0.18287529 -0.23062909 0.61900002 nan
-0.18178998 -0.23062909 0.61900002 nan
-0.1809966 -0.23100166 0.62 nan
-0.17990953 -0.23100166 0.62 nan
-0.17882247 -0.23100166 0.62 nan
-0.1777354 -0.23100166 0.62 nan
-0.17664833 -0.23100166 0.62 nan
-0.17230007 -0.23100166 0.62 nan
-0.17093685 -0.23062909 0.61900002 nan
-0.16985154 -0.23062909 0.61900002 nan
-0.16903886 -0.23100166 0.62 nan
-0.1676809 -0.23062909 0.61900002 nan
-0.16659559 -0.23062909 0.61900002 nan
-0.16551028 -0.23062909 0.61900002 nan
-0.16442497 -0.23062909 0.61900002 nan
-0.16333966 -0.23062909 0.61900002 nan
-0.16225435 -0.23062909 0.61900002 nan
-0.16116902 -0.23062909 0.61900002 nan
-0.16008371 -0.23062909 0.61900002 nan
-0.1589984 -0.23062909 0.61900002 nan
-0.15791309 -0.23062909 0.61900002 nan
-0.15682778 -0.23062909 0.61900002 nan
-0.15574247 -0.23062909 0.61900002 nan
-0.15440729 -0.2302565 0.61800003 nan
-0.15332374 -0.2302565 0.61800003 nan
-0.15248652 -0.23062909 0.61900002 nan
-0.15140121 -0.23062909 0.61900002 nan
-0.15007307 -0.2302565 0.61800003 nan
-0.14923058 -0.23062909 0.61900002 nan
-0.14814527 -0.23062909 0.61900002 nan
-0.14705996 -0.23062909 0.61900002 nan
-0.14621046 -0.23100166 0.62 nan
-0.14512339 -0.23100166 0.62 nan
-0.14380401 -0.23062909 0.61900002 nan
-0.14294927 -0.23100166 0.62 nan
-0.1418622 -0.23100166 0.62 nan
-0.14077513 -0.23100166 0.62 nan
-0.13968806 -0.23100166 0.62 nan
-0.13860101 -0.23100166 0.62 nan
-0.13751394 -0.23100166 0.62 nan
-0.13620682 -0.23062909 0.61900002 nan
-0.1353398 -0.23100166 0.62 nan
-0.13186558 -0.23062909 0.61900002 nan
-0.13078025 -0.23062909 0.61900002 nan
-0.12969494 -0.23062909 0.61900002 nan
-0.12860963 -0.23062909 0.61900002 nan
-0.12773034 -0.23100166 0.62 nan
-0.12664327 -0.23100166 0.62 nan
-0.1255562 -0.23100166 0.62 nan
-0.12446913 -0.23100166 0.62 nan
-0.12358107 -0.23137425 0.62100005 nan
-0.12249225 -0.23137425 0.62100005 nan
-0.12140343 -0.23137425 0.62100005 nan
-0.12031461 -0.23137425 0.62100005 nan
-0.1190338 -0.23100166 0.62 nan
-0.11794673 -0.23100166 0.62 nan
-0.11685967 -0.23100166 0.62 nan
-0.1157726 -0.23100166 0.62 nan
-0.11468554 -0.23100166 0.62 nan
-0.11359847 -0.23100166 0.62 nan
-0.1125114 -0.23100166 0.62 nan
-0.11142433 -0.23100166 0.62 nan
-0.11033726 -0.23100166 0.62 nan
-0.1092502 -0.23100166 0.62 nan
-0.10816313 -0.23100166 0.62 nan
-0.10707606 -0.23100166 0.62 nan
-0.10615995 -0.23137425 0.62100005 nan
-0.10507113 -0.23137425 0.62100005 nan
-0.10398231 -0.23137425 0.62100005 nan
-0.10289349 -0.23137425 0.62100005 nan
-0.10180467 -0.23137425 0.62100005 nan
-0.10071585 -0.23137425 0.62100005 nan
-0.099627033 -0.23137425 0.62100005 nan
-0.098538212 -0.23137425 0.62100005 nan
-0.097292468 -0.23100166 0.62 nan
-0.096205398 -0.23100166 0.62 nan
-0.095118336 -0.23100166 0.62 nan
-0.094031267 -0.23100166 0.62 nan
-0.092944197 -0.23100166 0.62 nan
-0.089972302 -0.23174684 0.62200004 nan
-0.088881724 -0.23174684 0.62200004 nan
-0.087791152 -0.23174684 0.62200004 nan
-0.086700581 -0.23174684 0.62200004 nan
-0.079066567 -0.23174684 0.62200004 nan
-0.077975996 -0.23174684 0.62200004 nan
-0.076885417 -0.23174684 0.62200004 nan
-0.075794846 -0.23174684 0.62200004 nan
-0.074704275 -0.23174684 0.62200004 nan
-0.073613703 -0.23174684 0.62200004 nan
-0.072523125 -0.23174684 0.62200004 nan
-0.071432553 -0.23174684 0.62200004 nan
-0.07022889 -0.23137425 0.62100005 nan
-0.069140069 -0.23137425 0.62100005 nan
-0.068051249 -0.23137425 0.62100005 nan
-0.066962428 -0.23137425 0.62100005 nan
-0.065873608 -0.23137425 0.62100005 nan
-0.064889111 -0.23174684 0.62200004 nan
-0.063798539 -0.23174684 0.62200004 nan
-0.062707968 -0.23174684 0.62200004 nan
-0.061617393 -0.23174684 0.62200004 nan
-0.060526818 -0.23174684 0.62200004 nan
-0.059531804 -0.23211941 0.62300003 nan
-0.058439475 -0.23211941 0.62300003 nan
-0.057347149 -0.23211941 0.62300003 nan
-0.056164525 -0.23174684 0.62200004 nan
-0.055073954 -0.23174684 0.62200004 nan
-0.053983379 -0.23174684 0.62200004 nan
-0.052977841 -0.23211941 0.62300003 nan
-0.051802233 -0.23174684 0.62200004 nan
-0.050711658 -0.23174684 0.62200004 nan
-0.049621087 -0.23174684 0.62200004 nan
-0.048530512 -0.23174684 0.62200004 nan
-0.04743994 -0.23174684 0.62200004 nan
-0.046349365 -0.23174684 0.62200004 nan
-0.045258794 -0.23174684 0.62200004 nan
-0.044168219 -0.23174684 0.62200004 nan
-0.043146905 -0.23211941 0.62300003 nan
-0.041987073 -0.23174684 0.62200004 nan
-0.040962249 -0.23211941 0.62300003 nan
-0.039869923 -0.23211941 0.62300003 nan
-0.038777597 -0.23211941 0.62300003 nan
-0.03762478 -0.23174684 0.62200004 nan
-0.036534205 -0.23174684 0.62200004 nan
-0.035443634 -0.23174684 0.62200004 nan
-0.034353059 -0.23174684 0.62200004 nan
-0.033262488 -0.23174684 0.62200004 nan
-0.032171912 -0.23174684 0.62200004 nan
-0.03103137 -0.23137425 0.62100005 nan
-0.02994255 -0.23137425 0.62100005 nan
-0.028900193 -0.23174684 0.62200004 nan
-0.02780962 -0.23174684 0.62200004 nan
-0.026719047 -0.23174684 0.62200004 nan
-0.025628474 -0.23174684 0.62200004 nan
-0.0245379 -0.23174684 0.62200004 nan
-0.023447327 -0.23174684 0.62200004 nan
-0.022356752 -0.23174684 0.62200004 nan
-0.021266179 -0.23174684 0.62200004 nan
-0.01905435 -0.23137425 0.62100005 nan
-0.017965529 -0.23137425 0.62100005 nan
-0.016876711 -0.23137425 0.62100005 nan
-0.01578789 -0.23137425 0.62100005 nan
-0.01469907 -0.23137425 0.62100005 nan
-0.01361025 -0.23137425 0.62100005 nan
-0.01252143 -0.23137425 0.62100005 nan
-0.01143261 -0.23137425 0.62100005 nan
-0.010360447 -0.23174684 0.62200004 nan
-0.0092698736 -0.23174684 0.62200004 nan
-0.0081792995 -0.23174684 0.62200004 nan
-0.0070887269 -0.23174684 0.62200004 nan
-0.0059885099 -0.23137425 0.62100005 nan
-0.0049075801 -0.23174684 0.62200004 nan
-0.0038170067 -0.23174684 0.62200004 nan
-0.0027264333 -0.23174684 0.62200004 nan
-0.00163323 -0.23137425 0.62100005 nan
-0.00054441002 -0.23137425 0.62100005 nan
0.00054528669 -0.23174684 0.62200004 nan
0.00163586 -0.23174684 0.62200004 nan
0.0027264333 -0.23174684 0.62200004 nan
0.0038170067 -0.23174684 0.62200004 nan
0.0049075801 -0.23174684 0.62200004 nan
0.0059981532 -0.23174684 0.62200004 nan
0.0070773298 -0.23137425 0.62100005 nan
0.0081792995 -0.23174684 0.62200004 nan
0.0092698736 -0.23174684 0.62200004 nan
0.010360447 -0.23174684 0.62200004 nan
0.01145102 -0.23174684 0.62200004 nan
0.012541593 -0.23174684 0.62200004 nan
0.013632166 -0.23174684 0.62200004 nan
0.01472274 -0.23174684 0.62200004 nan
0.015838737 -0.23211941 0.62300003 nan
0.016903887 -0.23174684 0.62200004 nan
0.01799446 -0.23174684 0.62200004 nan
0.019085033 -0.23174684 0.62200004 nan
0.020175606 -0.23174684 0.62200004 nan
0.021266179 -0.23174684 0.62200004 nan
0.022356752 -0.23174684 0.62200004 nan
0.023447327 -0.23174684 0.62200004 nan
0.0245379 -0.23174684 0.62200004 nan
0.025669677 -0.23211941 0.62300003 nan
0.026762003 -0.23211941 0.62300003 nan
0.03113131 -0.23211941 0.62300003 nan
0.032223638 -0.23211941 0.62300003 nan
0.033315964 -0.23211941 0.62300003 nan
0.03440829 -0.23211941 0.62300003 nan
0.040962249 -0.23211941 0.62300003 nan
0.042054575 -0.23211941 0.62300003 nan
0.043146905 -0.23211941 0.62300003 nan
0.044310238 -0.232492 0.62400001 nan
0.045404319 -0.232492 0.62400001 nan
0.046498399 -0.232492 0.62400001 nan
0.04759248 -0.232492 0.62400001 nan
0.04868656 -0.232492 0.62400001 nan
0.049780641 -0.232492 0.62400001 nan
0.05079319 -0.23211941 0.62300003 nan
0.051885515 -0.23211941 0.62300003 nan
0.052977841 -0.23211941 0.62300003 nan
0.054070171 -0.23211941 0.62300003 nan
0.055162497 -0.23211941 0.62300003 nan
0.056254823 -0.23211941 0.62300003 nan
0.057347149 -0.23211941 0.62300003 nan
0.058439475 -0.23211941 0.62300003 nan
0.059531804 -0.23211941 0.62300003 nan
0.06062413 -0.23211941 0.62300003 nan
0.061815519 -0.232492 0.62400001 nan
0.062909603 -0.232492 0.62400001 nan
0.064003676 -0.232492 0.62400001 nan
0.065097757 -0.232492 0.62400001 nan
0.066191837 -0.232492 0.62400001 nan
0.069585413 -0.23286459 0.625 nan
0.070681252 -0.23286459 0.625 nan
0.071777083 -0.23286459 0.625 nan
0.072872914 -0.23286459 0.625 nan
0.073968753 -0.23286459 0.625 nan
0.075064585 -0.23286459 0.625 nan
0.076160416 -0.23286459 0.625 nan
0.077132642 -0.232492 0.62400001 nan
0.078226723 -0.232492 0.62400001 nan
0.079447918 -0.23286459 0.625 nan
0.080414876 -0.232492 0.62400001 nan
0.08163958 -0.23286459 0.625 nan
0.082735419 -0.23286459 0.625 nan
0.083831251 -0.23286459 0.625 nan
0.084927082 -0.23286459 0.625 nan
0.086022913 -0.23286459 0.625 nan
0.087118752 -0.23286459 0.625 nan
0.088214584 -0.23286459 0.625 nan
0.089310415 -0.23286459 0.625 nan
0.090261601 -0.232492 0.62400001 nan
0.091209278 -0.23211941 0.62300003 nan
0.0923016 -0.23211941 0.62300003 nan
0.093543842 -0.232492 0.62400001 nan
0.094486259 -0.23211941 0.62300003 nan
0.095578581 -0.23211941 0.62300003 nan
0.096826077 -0.232492 0.62400001 nan
0.097920157 -0.232492 0.62400001 nan
0.099014238 -0.232492 0.62400001 nan
0.10026875 -0.23286459 0.625 nan
0.10136458 -0.23286459 0.625 nan
0.10246041 -0.23286459 0.625 nan
0.10355625 -0.23286459 0.625 nan
0.10465208 -0.23286459 0.625 nan
0.10574792 -0.23286459 0.625 nan
0.1066728 -0.232492 0.62400001 nan
0.10776688 -0.232492 0.62400001 nan
0.10886096 -0.232492 0.62400001 nan
0.10995504 -0.232492 0.62400001 nan
0.11087116 -0.23211941 0.62300003 nan
0.11196348 -0.23211941 0.62300003 nan
0.11305581 -0.23211941 0.62300003 nan
0.11414813 -0.23211941 0.62300003 nan
0.11524046 -0.23211941 0.62300003 nan
0.11633279 -0.23211941 0.62300003 nan
0.11742511 -0.23211941 0.62300003 nan
0.11870768 -0.232492 0.62400001 nan
0.11999375 -0.23286459 0.625 nan
0.12108959 -0.23286459 0.625 nan
0.12218542 -0.23286459 0.625 nan
0.12328125 -0.23286459 0.625 nan
0.12437708 -0.23286459 0.625 nan
0.12527215 -0.232492 0.62400001 nan
0.12636624 -0.232492 0.62400001 nan
0.12746032 -0.232492 0.62400001 nan
0.1285544 -0.232492 0.62400001 nan
0.12964848 -0.232492 0.62400001 nan
0.13423958 -0.23286459 0.625 nan
0.13533542 -0.23286459 0.625 nan
0.13643125 -0.23286459 0.625 nan
0.13752708 -0.23286459 0.625 nan
0.13840112 -0.232492 0.62400001 nan
0.13949519 -0.232492 0.62400001 nan
0.14058928 -0.232492 0.62400001 nan
0.14168335 -0.232492 0.62400001 nan
0.14300625 -0.23286459 0.625 nan
0.14410208 -0.23286459 0.625 nan
0.14519791 -0.23286459 0.625 nan
0.14629374 -0.23286459 0.625 nan
0.14738958 -0.23286459 0.625 nan
0.14848542 -0.23286459 0.625 nan
0.14958125 -0.23286459 0.625 nan
0.15067708 -0.23286459 0.625 nan
0.15177292 -0.23286459 0.625 nan
0.15262416 -0.232492 0.62400001 nan
0.15371823 -0.232492 0.62400001 nan
0.15481232 -0.232492 0.62400001 nan
0.15590639 -0.232492 0.62400001 nan
0.15700048 -0.232492 0.62400001 nan
0.15809456 -0.232492 0.62400001 nan
0.15944375 -0.23286459 0.625 nan
0.16028272 -0.232492 0.62400001 nan
0.16163541 -0.23286459 0.625 nan
0.16273125 -0.23286459 0.625 nan
0.16435133 -0.23360975 0.62700003 nan
0.16545066 -0.23360975 0.62700003 nan
0.16655001 -0.23360975 0.62700003 nan
0.16764934 -0.23360975 0.62700003 nan
0.16874869 -0.23360975 0.62700003 nan
0.16984802 -0.23360975 0.62700003 nan
0.17094737 -0.23360975 0.62700003 nan
0.17232111 -0.23398232 0.62800002 nan
0.17314605 -0.23360975 0.62700003 nan
0.17424539 -0.23360975 0.62700003 nan
0.17562439 -0.23398232 0.62800002 nan
0.17672548 -0.23398232 0.62800002 nan
0.17782657 -0.23398232 0.62800002 nan
0.17921259 -0.23435491 0.62900001 nan
0.18002875 -0.23398232 0.62800002 nan
0.18112986 -0.23398232 0.62800002 nan
0.18223095 -0.23398232 0.62800002 nan
0.18362397 -0.23435491 0.62900001 nan
0.18502049 -0.2347275 0.63000005 nan
0.18582967 -0.23435491 0.62900001 nan
0.1869325 -0.23435491 0.62900001 nan
0.18773641 -0.23398232 0.62800002 nan
0.1891382 -0.23435491 0.62900001 nan
0.1899386 -0.23398232 0.62800002 nan
0.1910397 -0.23398232 0.62800002 nan
0.19214079 -0.23398232 0.62800002 nan
0.19354959 -0.23435491 0.62900001 nan
0.19465244 -0.23435491 0.62900001 nan
0.19575529 -0.23435491 0.62900001 nan
0.19685812 -0.23435491 0.62900001 nan
0.19764625 -0.23398232 0.62800002 nan
0.19874735 -0.23398232 0.62800002 nan
0.19984844 -0.23398232 0.62800002 nan
0.20094953 -0.23398232 0.62800002 nan
0.20205063 -0.23398232 0.62800002 nan
0.20282823 -0.23360975 0.62700003 nan
0.20392756 -0.23360975 0.62700003 nan
0.20502691 -0.23360975 0.62700003 nan
0.20612624 -0.23360975 0.62700003 nan
0.20722559 -0.23360975 0.62700003 nan
0.20832492 -0.23360975 0.62700003 nan
0.20942427 -0.23360975 0.62700003 nan
0.21052361 -0.23360975 0.62700003 nan
0.21196046 -0.23398232 0.62800002 nan
0.21306156 -0.23398232 0.62800002 nan
0.21416265 -0.23398232 0.62800002 nan
0.21526374 -0.23398232 0.62800002 nan
0.21636485 -0.23398232 0.62800002 nan
0.21746594 -0.23398232 0.62800002 nan
0.21856703 -0.23398232 0.62800002 nan
0.21966812 -0.23398232 0.62800002 nan
0.22076921 -0.23398232 0.62800002 nan
0.2218703 -0.23398232 0.62800002 nan
0.22297139 -0.23398232 0.62800002 nan
0.22442929 -0.23435491 0.62900001 nan
0.22553214 -0.23435491 0.62900001 nan
0.22663499 -0.23435491 0.62900001 nan
0.22773783 -0.23435491 0.62900001 nan
0.22884068 -0.23435491 0.62900001 nan
0.22994353 -0.23435491 0.62900001 nan
0.23104638 -0.23435491 0.62900001 nan
0.23214923 -0.23435491 0.62900001 nan
0.23325206 -0.23435491 0.62900001 nan
0.23435491 -0.23435491 0.62900001 nan
0.23545776 -0.23435491 0.62900001 nan
0.23656061 -0.23435491 0.62900001 nan
0.23766345 -0.23435491 0.62900001 nan
0.2387663 -0.23435491 0.62900001 nan
0.23986915 -0.23435491 0.62900001 nan
0.240972 -0.23435491 0.62900001 nan
0.24207485 -0.23435491 0.62900001 nan
0.24317768 -0.23435491 0.62900001 nan
0.24389218 -0.23398232 0.62800002 nan
0.24538338 -0.23435491 0.62900001 nan
0.24648623 -0.23435491 0.62900001 nan
0.24758908 -0.23435491 0.62900001 nan
0.24869192 -0.23435491 0.62900001 nan
0.24979477 -0.23435491 0.62900001 nan
0.25089762 -0.23435491 0.62900001 nan
0.26344711 -0.2347275 0.63000005 nan
0.2645517 -0.2347275 0.63000005 nan
0.26565629 -0.2347275 0.63000005 nan
0.26633745 -0.23435491 0.62900001 nan
0.26786551 -0.2347275 0.63000005 nan
0.2689701 -0.2347275 0.63000005 nan
0.2700747 -0.2347275 0.63000005 nan
0.27074885 -0.23435491 0.62900001 nan
0.27185169 -0.23435491 0.62900001 nan
0.27295455 -0.23435491 0.62900001 nan
0.27405739 -0.23435491 0.62900001 nan
0.27559769 -0.2347275 0.63000005 nan
0.27626309 -0.23435491 0.62900001 nan
0.27736592 -0.23435491 0.62900001 nan
0.27802607 -0.23398232 0.62800002 nan
0.27912715 -0.23398232 0.62800002 nan
0.28067449 -0.23435491 0.62900001 nan
0.28177732 -0.23435491 0.62900001 nan
0.28288016 -0.23435491 0.62900001 nan
0.28353152 -0.23398232 0.62800002 nan
0.28463262 -0.23398232 0.62800002 nan
0.28984791 -0.23286459 0.625 nan
0.29187477 -0.23360975 0.62700003 nan
0.29297411 -0.23360975 0.62700003 nan
0.2931354 -0.23286459 0.625 nan
0.29423124 -0.23286459 0.625 nan
0.29751876 -0.23286459 0.625 nan
0.29861459 -0.23286459 0.625 nan
0.29923087 -0.232492 0.62400001 nan
0.30032495 -0.232492 0.62400001 nan
0.30190209 -0.23286459 0.625 nan
0.30299792 -0.23286459 0.625 nan
0.30409375 -0.23286459 0.625 nan
0.30518958 -0.23286459 0.625 nan
0.30628541 -0.23286459 0.625 nan
0.30688944 -0.232492 0.62400001 nan
0.30798352 -0.232492 0.62400001 nan
0.30907759 -0.232492 0.62400001 nan
0.31017166 -0.232492 0.62400001 nan
0.31126577 -0.232492 0.62400001 nan
0.31404391 -0.23211941 0.62300003 nan
0.31564209 -0.232492 0.62400001 nan
0.31622857 -0.23211941 0.62300003 nan
0.31681156 -0.23174684 0.62200004 nan
0.31841323 -0.23211941 0.62300003 nan
0.3189927 -0.23174684 0.62200004 nan
0.32008326 -0.23174684 0.62200004 nan
-0.34003532 -0.22509381 0.60700005 -3.2897075e+38
-0.32939258 -0.22509381 0.60700005 nan
-0.32832831 -0.22509381 0.60700005 nan
-0.32672489 -0.22472298 0.60600001 nan
-0.32566237 -0.22472298 0.60600001 nan
-0.32459986 -0.22472298 0.60600001 nan
-0.32247481 -0.22472298 0.60600001 nan
-0.3214123 -0.22472298 0.60600001 nan
-0.31506875 -0.22323966 0.60200006 nan
-0.31023568 -0.22509381 0.60700005 nan
-0.30917141 -0.22509381 0.60700005 nan
-0.30810714 -0.22509381 0.60700005 nan
-0.30704287 -0.22509381 0.60700005 nan
-0.3015672 -0.22657713 0.611 nan
-0.30049592 -0.22657713 0.611 nan
-0.28990227 -0.22583547 0.60900003 nan
-0.28930876 -0.2262063 0.61000001 nan
-0.28823924 -0.2262063 0.61000001 nan
-0.28716969 -0.2262063 0.61000001 nan
-0.28610018 -0.2262063 0.61000001 nan
-0.28503063 -0.2262063 0.61000001 nan
-0.2844266 -0.22657713 0.611 nan
-0.28335533 -0.22657713 0.611 nan
-0.28228402 -0.22657713 0.611 nan
-0.28167298 -0.22694796 0.61200005 nan
-0.28059995 -0.22694796 0.61200005 nan
-0.27952692 -0.22694796 0.61200005 nan
-0.27845389 -0.22694796 0.61200005 nan
-0.27738082 -0.22694796 0.61200005 nan
-0.27630779 -0.22694796 0.61200005 nan
-0.26816094 -0.22731879 0.61300004 nan
-0.26708615 -0.22731879 0.61300004 nan
-0.26601136 -0.22731879 0.61300004 nan
-0.26493657 -0.22731879 0.61300004 nan
-0.26386178 -0.22731879 0.61300004 nan
-0.26278695 -0.22731879 0.61300004 nan
-0.25998601 -0.22768962 0.61400002 nan
-0.25933114 -0.22806045 0.61500001 nan
-0.25783291 -0.22768962 0.61400002 nan
-0.25675637 -0.22768962 0.61400002 nan
-0.25567985 -0.22768962 0.61400002 nan
-0.2546033 -0.22768962 0.61400002 nan
-0.25352675 -0.22768962 0.61400002 nan
-0.2524502 -0.22768962 0.61400002 nan
-0.25137365 -0.22768962 0.61400002 nan
-0.2502971 -0.22768962 0.61400002 nan
-0.24962644 -0.22806045 0.61500001 nan
-0.24854815 -0.22806045 0.61500001 nan
-0.24746984 -0.22806045 0.61500001 nan
-0.24599092 -0.22768962 0.61400002 nan
-0.24531324 -0.22806045 0.61500001 nan
-0.24423495 -0.22806045 0.61500001 nan
-0.24315664 -0.22806045 0.61500001 nan
-0.24207835 -0.22806045 0.61500001 nan
-0.24100004 -0.22806045 0.61500001 nan
-0.23992175 -0.22806045 0.61500001 nan
-0.23776515 -0.22806045 0.61500001 nan
-0.23668686 -0.22806045 0.61500001 nan
-0.23560855 -0.22806045 0.61500001 nan
-0.23453026 -0.22806045 0.61500001 nan
-0.23345195 -0.22806045 0.61500001 nan
-0.23237365 -0.22806045 0.61500001 nan
-0.23129535 -0.22806045 0.61500001 nan
-0.23021705 -0.22806045 0.61500001 nan
-0.22375514 -0.22917295 0.61800003 nan
-0.22303189 -0.22954378 0.61900002 nan
-0.22194658 -0.22954378 0.61900002 nan
-0.22086126 -0.22954378 0.61900002 nan
-0.21977594 -0.22954378 0.61900002 nan
-0.21869063 -0.22954378 0.61900002 nan
-0.21760532 -0.22954378 0.61900002 nan
-0.21617022 -0.22917295 0.61800003 nan
-0.21508665 -0.22917295 0.61800003 nan
-0.2140031 -0.22917295 0.61800003 nan
-0.21291953 -0.22917295 0.61800003 nan
-0.21183598 -0.22917295 0.61800003 nan
-0.21075241 -0.22917295 0.61800003 nan
-0.20966886 -0.22917295 0.61800003 nan
-0.20858529 -0.22917295 0.61800003 nan
-0.20750174 -0.22917295 0.61800003 nan
-0.20641817 -0.22917295 0.61800003 nan
-0.20533462 -0.22917295 0.61800003 nan
-0.20458156 -0.22954378 0.61900002 nan
-0.20349625 -0.22954378 0.61900002 nan
-0.20241094 -0.22954378 0.61900002 nan
-0.20132563 -0.22954378 0.61900002 nan
-0.2005638 -0.22991461 0.62 nan
-0.199155 -0.22954378 0.61900002 nan
-0.19806968 -0.22954378 0.61900002 nan
-0.19698437 -0.22954378 0.61900002 nan
-0.19589905 -0.22954378 0.61900002 nan
-0.19481374 -0.22954378 0.61900002 nan
-0.1940414 -0.22991461 0.62 nan
-0.19295433 -0.22991461 0.62 nan
-0.19155779 -0.22954378 0.61900002 nan
-0.19047248 -0.22954378 0.61900002 nan
-0.18938717 -0.22954378 0.61900002 nan
-0.18830186 -0.22954378 0.61900002 nan
-0.18721655 -0.22954378 0.61900002 nan
-0.18613124 -0.22954378 0.61900002 nan
-0.18504593 -0.22954378 0.61900002 nan
-0.18425781 -0.22991461 0.62 nan
-0.18317074 -0.22991461 0.62 nan
-0.18208367 -0.22991461 0.62 nan
-0.18128853 -0.23028544 0.62100005 nan
-0.18019971 -0.23028544 0.62100005 nan
